6773.419275571319;6605.6462018707625;6476.044558890615;6202.240037600741;5770.009330970937;5691.999347307581;5667.445947818625;5397.697445347088;5376.706150182805;3858.29125450899;5193.144937490009;4869.838533202192;5122.805981698444;4994.504461073639;4743.950568812123;4478.616777452964;4370.0017695934985;4207.786618069071;4014.934043364517;3798.277108140252;3616.4249138469627;3256.88300039304;3206.5367168671924;2798.1971758042105;2507.6896810786716;2220.7482965869126;2053.9760648059087;1847.9240840662255;1579.8773688567476;1490.9556542486043;1887.6837727292573;1376.2045319953377;1158.0282335560792;1192.4610276394064;1361.3700531772774;1141.1236584364551;1129.8700132349536;1143.1987390057193;1142.4267903531545;1133.0838829389436;1133.725320906989;1165.660077016155;1125.4735054742437;1125.8778218342104;1133.3551865527543;1168.710881637348;1319.839736581559;1554.9253072072165;1778.522062138653;1834.2566672036291;1677.6707301451834;1259.5357250473035;1710.2553539006904;1212.1953758224095;1779.5906541170966;1897.7924944984156;2139.225723436379;2354.541255725772;2557.3060350602186;2923.801990117821;3182.586806712044;3244.3938653324635;3214.599284542454;3210.1847556333546;3159.0556716716515;3233.8502265823404;3402.289398773302;2642.359261872903;3583.8419145555395;3498.403315935722;3777.0559896372547;3750.793581590608;4074.7996338878406;3818.4248699691157;4344.735719934022;4661.720724119734;4837.150023494629;5113.509330744404;5130.365204357773;5380.716183455323;5476.755474919488;5233.340252053917;5865.888552600751;6010.635574623442;6121.295521656617;6203.148478815809;6056.104794151492;5961.0646121546;6091.393377608469;6318.850341551626;6537.854575463374;5742.915987547611;6767.709187823217;6912.575696145193;6930.950443653521;6776.479526626585;6800.709112217955;7141.33636966556;7308.960822511224;7397.991146053786;7368.291051889744;7219.071917095223;7146.0230000729025;7064.552039195893;6722.909681860114;6607.1315831852025;6066.600076521667;6171.3181339575585;6227.23622004571;6142.200872598594;6136.935150629659;4905.084891652999;6139.420184603807;6080.362172154126;5859.407044290239;5616.236328354824;5336.659612651016;5098.705274822023;4798.691703910314;4862.795783250718;4886.043610636074;4822.9399292478865;4506.067465283457;3763.0518696406084;4637.96231368643;4471.829661667929;4205.540334007323;4066.842427728832;3768.1607043965437;3579.8489203966933;3393.3319034756537;3227.701153554815;3064.4892614940322;2918.0993849757183;2784.1474939502637;2741.241546356168;2564.7443216117567;2365.7537077328875;2141.1218859046407;1970.1548301781222;2043.1822922045162;2048.1746880889536;2054.3290174198414;2051.1784242055933;2049.3501097965714;2048.318163077622;2032.1210122560665;2058.8194919175544;1976.8203077396938;2046.8949182574256;2034.5738627423484;2055.968450799824;2057.291558336238;2062.1106162640212;2054.4211351180015;2019.5453542751625;2060.0205087304053;2072.966050941563;2068.5794477284066;2075.744379172707;2076.721387848726;2083.429337082012;2096.21209736218;2103.7608989299574
6357.695597718834;6192.411796541168;5917.425127798426;5988.202487216226;5713.525636562297;5649.406416020489;5604.980241806712;5563.814882931691;5011.2031431028445;5198.377974895013;3724.5229573384518;4945.385928867212;4797.944161340205;4511.138383012918;4228.3343436863615;4027.6825139684893;4213.500377093906;3971.7599529428294;3692.2291741786944;3462.4858543142195;3126.9924834147164;2951.9253159547156;2489.529667510436;2655.2425176556767;2265.018453504437;1966.3479233515404;1978.6024297257636;1630.0533080240712;1525.722343734025;1464.6014028139166;1319.4412703553771;1699.0212470814195;1194.105563869627;1124.9817827321517;1140.9227120880578;1225.1148278368642;1129.598740928961;1137.6755280957514;1133.796740059926;1128.7360706311365;1118.9756388665587;1117.5485132981503;1137.7822141038328;1119.107169040994;1120.2101568224457;1127.5139807119199;1232.4893609408123;1497.6785525021733;1674.5714805910393;1714.0232570497415;1697.6729228994095;1216.1602869193403;1200.1350639946977;1687.7062285676202;1612.939423659002;2083.506981262048;2315.6858781409696;2533.5966426257933;2626.272601640749;2837.3853668269116;3099.236851753753;3227.40612760017;3264.48071345143;3229.8089711637444;2947.6585124358558;3274.8553549737494;2559.797190918593;3413.05694614468;3517.6770060223057;3700.171972096358;3720.389813167349;4011.0912947228157;4124.088801939943;4368.785358924646;4117.097898056529;4569.305514409118;4970.760762600319;5201.952360059389;5410.741612209074;5520.070784788279;5681.595075369469;5792.414633184366;5705.422342725626;5949.118205882978;6064.3934045327405;6020.118737507766;6089.766529805343;5477.6693055914275;6032.722384324412;5948.32059810204;5547.443750438668;6315.896933153095;6715.81822862704;6833.543516910975;6804.581036537535;6384.730782546341;6765.5564932541565;7005.716794350023;7133.658783866158;7163.084488818327;7054.432089247835;6997.113237384847;6794.955544813636;6674.2072329893945;6570.236587442345;6297.504225917723;6199.151443879051;5968.583059008475;6100.504477467026;6162.069461583029;5984.338590784446;5967.89697529747;4817.770151244917;5935.18373555224;5794.027144622107;5291.400273895411;5034.045094507308;4958.996173988424;4949.0098897219195;4529.111371042363;4660.266745983838;4746.258747625929;4583.348439806927;4171.59505659923;3287.7072398717323;4262.006830739783;4007.8418888241536;3685.1603241697953;3568.3556468165366;3372.242147030431;3231.452701244199;3065.3497919152856;2926.9167359321877;2790.7887470037645;2734.541830012446;2708.685813876667;2536.633654649115;2354.9922603157333;2081.351061137249;2040.0166736011156;1955.3807972881723;2044.5678077778007;2034.6572578169194;2050.6954751967;2047.6240462990204;2036.4083785850758;2045.0070886146327;1972.740844848931;2054.3033102892246;2042.512133972405;2055.983497054545;2054.3235456872403;2052.7874356903553;2051.0364173201947;2008.9333908503381;2057.0544285974843;2064.407087821943;2077.765898611399;2076.181834602548;2077.4736757673923;2075.82446618738;2093.4618104617844;2099.951436954722;2114.4556797760692
6107.123623598327;5852.8651140889215;5487.968096417962;5180.195388895274;5369.959617110053;5460.273939305986;5536.735500399085;5388.523601693734;5440.9136982864475;5157.310564621008;5066.103025771481;3597.7416395146324;4770.641815456065;4460.067571097696;3938.270474552904;3645.923045649464;3930.809357100949;3840.0457238017066;3469.1773105954803;3170.1208579157988;2864.212956686218;2497.473607319743;2299.5343058955345;2009.3909817115082;2135.742626658824;1792.6521691712792;1671.5946992281715;1790.7827542944078;1529.7875586750006;1451.1117192181941;1307.1974462969952;1215.0134762349758;1551.3128366970222;1127.0701324582046;1119.0848823900833;1131.1065237260777;1133.0667236589406;1125.1015488606795;1124.087244738755;1119.8000545017762;1115.113789404947;1108.2780804045133;1112.4479030242833;1120.2581294043307;1114.0150690276996;1116.5981059901137;1121.836738951367;1289.0423621329019;1505.8485110063589;1651.44769874974;1584.88225084527;1184.695630576513;1640.6698409553642;1819.8991351235563;2109.632160708044;2135.5013128770456;2314.8982030438215;2518.9834193758957;2769.607942170583;2944.1482106647277;3015.517730744927;3064.1757973281206;3140.878639616851;2948.358247802956;2986.78436171119;2446.595959128583;3378.940882661011;3340.949222146;3414.785665464869;3423.9051748747665;3618.360444611229;3937.077609962243;4344.149510781319;4421.766464392798;4597.646689040073;4688.902807270411;5049.960893501937;5338.600055970219;5471.787385389207;5644.522300047802;5790.491501430895;5939.703707437784;5962.175029770233;5998.082726975797;6069.124160906573;6029.583251547459;5762.092951494382;5852.315727509034;4904.435588090346;5362.791038218829;6122.2195681924095;6481.478857903176;6602.591530580248;6677.177477741454;6697.215000389271;6064.865011133905;6595.175250819193;6858.006436784666;6819.061778338606;6935.553081409636;6895.495348460436;6599.255144565186;6640.543246914878;6382.310519060124;6142.183831898394;6108.0164948198;5948.817452116626;5603.275407053046;6168.84585924784;6190.40889061455;6150.225805629279;6077.246899583792;5915.512886475883;4702.367610513398;5599.519518217565;5415.5665657034915;4922.275334197953;4645.412414321647;4778.903238252076;4779.883391620735;4153.050462447118;4462.250140862248;4532.552490722948;4333.664682440271;3739.2169015519653;3278.4212142858146;3769.2965031128174;3549.3090184950365;3233.2618571347916;3058.7308659039168;3018.8927764633904;2924.05496823571;2760.871504413112;2695.665748098799;2669.2098015780944;2607.7847349819554;2435.4347480082774;2195.198050906852;2037.8403090316892;1990.6812164571024;2048.6648276911933;1950.774153538196;2044.0282655246424;2043.0986984450933;2041.2536440415402;2041.827179448967;1967.6393211001846;2046.7923981098534;2044.9158795470526;2058.042962204317;2051.705668709666;2049.906031022843;2048.5166760566403;1998.370165151554;2052.741664099412;2041.4671633569756;2057.0839733494854;2067.8618639998936;2086.342709629483;2053.260767894411;2078.099074245761;2086.0749442399406;2103.4287908657793;2091.6487937100733
6322.2501653863565;6145.2085887149315;5978.616942535364;5723.966936046389;4890.813097816419;5302.544933630306;5321.68726635914;5363.784748781411;5371.007205772417;5282.908812750033;4926.096777319575;4973.421926969682;3469.4611627551208;4325.350715293684;3988.3375979901343;3640.671011731603;3617.349201265091;3682.209531103845;3473.0480430519387;2967.1379685689913;2606.8229529528394;2368.9560636525525;2108.842455442465;1928.7265355960485;1818.3752103480674;1737.9593075970593;1521.9360898069945;1576.4381157370062;1611.3840536100847;1425.1002547236576;1314.7791162546096;1267.3972602043473;1204.1031356663634;1447.1273048675316;1124.421116925177;1128.8899327422268;1124.8995865952597;1119.3217227962232;1110.5801034827828;1111.3668716875632;1107.1764711027945;1102.6386058749677;1103.3057948484816;1107.647061346192;1107.9389609726295;1106.9621026211862;1114.9275737615203;1189.5028656321879;1449.7658597670975;1609.0551427579376;1147.4134654080135;1501.6596421905551;1789.427353791918;2066.4386009046025;2169.8746397680266;2342.7823828750547;2455.1879054762835;2689.9963032272412;2875.1655647169414;2962.975527324678;3019.6626161611716;2957.812609824247;2833.3629812211816;2799.329246939535;2353.983253833077;3168.390950714968;3324.424819359025;3289.458989333097;3281.5946608375284;3333.7887932299022;3712.1284948977977;4084.1419550468195;4416.217994093378;4630.635387890488;4788.034536796153;5014.988095549115;5173.2304578643725;5452.118162860934;5644.572772204374;5707.740976408582;5815.7377219157515;5978.806786482686;6001.521010262697;5907.610648055361;5963.960541568065;5941.721492073724;5890.57113897353;4577.5520116935295;5903.776638096511;5916.1177297393915;6247.076590070061;6421.267208450236;6512.268490722045;6549.877079250222;6386.989130962416;5880.37014114233;6524.769656704728;6613.769158395784;6570.447672341594;6732.968416208652;6694.390216605256;6589.105094572669;6373.9038507087025;6327.354657664355;6119.575520944443;5771.245361818603;5756.775931161148;5442.607709176611;6080.5785858595555;6173.012530978318;6143.377860563982;6066.951756533064;6004.472557886269;5817.398426154481;4575.236059792078;5466.741255997318;5214.939668264871;4751.376158686153;4500.46517488883;4740.279481642543;4718.939919832541;3783.1587326343983;4182.998378262708;4272.30037750727;3998.355732655708;3443.54309303725;3196.5025487025136;3511.9985993496953;3205.3369165736217;2994.0995253876313;2621.0862705422146;2831.563784244618;2583.3007095370945;2609.1773079100217;2478.3857961510344;2426.207355710469;2344.0149245790494;2163.425847242292;2056.6423253870703;2049.756635778757;2035.6578628736938;1937.5075533769718;2044.9690714807052;2040.2748663227799;1948.0918534209895;1962.647850215721;2047.1392856492962;2047.1752129411748;2046.5965708141935;2043.2440408066918;2056.2560563378806;2052.0270071638247;1987.930014662033;2050.6194647836223;2023.5858407791889;2053.042982000627;2075.4907268143756;2055.194336308668;2035.6815502673767;2091.2448772971143;2077.3324510374455;2097.9521155318257;2082.463295250114;2106.2358795504365
6247.909645379725;6158.546745192807;6005.174532579016;5849.635004076235;5589.864544278671;4585.997728260429;5244.674670720815;5244.710138402625;5123.687409614831;5100.967134541945;5040.080810760368;4634.069922720866;4609.459065823725;3344.122197383314;3923.34553797562;3596.152057132585;3650.5196960081926;3307.952556689142;3265.8135017034606;2914.667250755168;2455.411131047818;2153.553005059082;1928.3090988356548;1921.1226133231976;1809.3243245124813;1564.0840698400925;1638.0594787852433;1443.9413221042482;1445.142781538873;1481.8825170664782;1281.160963384521;1191.335483353887;1226.2523825398948;1189.0372700643602;1362.0435257103418;1119.625406109817;1115.2339169202573;1111.8874556784908;1106.8522180934956;1105.9646118444139;1101.6193686427064;1101.4554062882507;1098.3103690268745;1099.2783611219033;1103.4504048183321;1118.1346967357063;1104.761055575903;1164.1268128172755;1271.828564378975;1132.553857722898;1510.2605780369595;1627.3399296141183;1923.7130453834543;2153.580428704751;2265.6472990348716;2292.467156985465;2613.2004265063065;2818.1767549366637;2897.591554763018;2927.006150805764;2907.5553123809746;2645.583644155819;2455.4504753906417;2265.9134925947033;3087.964479493044;3231.2984773941002;3190.059688133781;3146.384561828159;3015.7819378523423;3380.40335189012;3751.2255805897425;4018.6696442960697;4286.58456991218;4580.3821402789745;4919.177835123386;5234.650836348608;5435.121912895567;5551.49047668242;5638.3007474469905;5625.402001639677;5841.419378194612;5931.124101328291;5932.335009275786;5917.49803572376;5681.908082029271;5707.550086537232;4511.21147617813;5822.230857705752;5815.872920880476;5999.647469798912;6094.938726470722;6207.918790557618;6279.422796872854;6463.63392724328;6434.414716196423;5808.579339097041;6183.643596961145;6376.732116853764;6383.317729660612;6274.573545452484;6462.995951673009;6429.031869583927;6312.36558757634;6151.176951285819;6153.642637035333;5872.325022363753;5156.143778634107;5814.469942355889;6024.94845648973;6123.6015445808935;6060.6127650319995;6032.766440370862;5886.312973417389;5816.967264423685;5712.725000914132;4448.871743868831;5164.522464917542;4722.651795902135;4553.9426480475595;4259.023443955402;4526.996246443896;4484.694259486236;3547.6302432907773;3860.8246353027375;3898.7057063791203;3693.233659498716;3297.7287525227935;3016.651295118267;3185.583627568814;3020.337785425633;3003.5300153122894;2476.997219123226;2658.2503811892825;2441.010676614978;2466.2549072960815;2252.8799901829157;2171.22239995058;2110.5601197679684;2065.444468184514;2096.203463563908;2021.6392071348969;1995.2664459657963;1924.3247077676697;1933.5813280637904;2037.4311835087424;2038.7676253765762;2047.9628532317315;2046.0925836543242;2038.8436282511234;2044.7663965587276;2045.472353187071;1977.7148518305507;2051.513127903288;2032.085878255029;2052.0178542270255;2061.380647413013;2051.4211894010236;2024.3005655502789;2052.416475459589;2066.4344254898783;2099.3529998623994;2078.6923997823874;2097.8784998405995;2099.7809273931866
6111.541212943286;6038.21619371479;5948.291687891799;5807.989398326052;5520.351165242819;5486.8820152915705;4348.783669850805;5046.7281456799265;5072.330308485109;4799.619993710798;4928.572493016198;4840.597289423691;4482.851416019956;4252.977209652057;3215.607538044422;3675.4960373858507;3560.8468397891743;3287.118468817764;2818.1198279799487;2722.737609876293;2398.275040505748;2181.9696160792914;2037.9078740005557;1895.9721563231783;1628.2431230410475;1688.0374189558206;1498.7347594404932;1427.7314441269268;1373.8681782339172;1335.0100578008887;1371.0679157951017;1201.9416891836577;1194.2239011614647;1194.6902205810516;1172.1428688084711;1288.9881163513287;1110.5113655988484;1102.7284998738455;1098.9431259350235;1098.8031940858295;1096.6075964888723;1096.6664485184224;1094.1954968418495;1096.8353348991163;1095.1679310528957;1099.5888720380603;1118.0032543148168;1102.2548757907389;1127.1772158716935;1333.4435855441166;1375.2685933439907;1730.5793101529134;2041.330954305557;2158.2028573353077;2175.151971753455;2409.3461622854434;2574.173367968709;2702.1085395862597;2770.6695061230544;2778.1112166099033;2555.5481768097247;1952.571982685672;2183.0550397799284;3069.1607556190133;3110.8352885825566;3228.207408502419;2375.7852966193245;2584.205409716075;3196.6218633672274;3443.5902763404088;3554.1919502619344;3769.087937314424;4166.319289318069;4397.936135674661;4851.920400228026;5228.009814842631;5357.997956981764;5548.061664829525;5478.759771234385;5529.888181554235;5744.501488735043;5928.452023389969;5919.6946265138795;5398.2470425977135;5803.723126963148;4374.545975924735;5648.803998233519;6005.686798606594;6075.35015221685;6045.88664518682;6053.863091421928;5989.58692344187;6038.028391697053;6217.64169819173;6169.961570974168;5736.298876470546;6081.686646484346;5999.492927492882;5978.009587097798;6148.455923276915;6095.400297831848;6065.61951570358;6257.633508795907;6128.483565071456;5984.152408300166;5944.379998076425;5919.542128161269;4981.0438963352335;5808.7537213246305;5930.129937801827;5954.669228728664;5820.463348462288;5889.164721141156;5571.160823042226;5597.297314888809;5451.846710860707;4325.389016660629;4596.160497092718;4498.9458584155;4280.496191968248;3868.2960938040155;4175.936169581362;4093.045659170489;3442.075962268065;3622.7833068667273;3566.234297014594;3380.5351171465622;3136.6621865618467;2849.802644903091;2969.1493203702753;2808.6352656426866;2753.4550401647844;2477.899334430376;2480.9593426406113;2277.851928699912;2252.038770817488;2164.5770425277374;2092.524776443173;2094.19588855571;2073.0744487563984;2038.4512601270603;1988.6905440199107;2027.4111433911135;1919.3318012671289;2040.930742734277;2042.8865310807792;2040.4264944822694;2025.2791516168695;2049.6630238288094;2038.7770283709792;1967.782965579474;2042.4835620043737;2017.0319412968283;2059.617590691641;2056.009928707251;2047.0219381430466;2012.1145730993803;2046.7613291225084;2051.6399110458638;2046.1094623443591;2063.0271439211187;2085.2676287847403;2093.3419901558104;2100.84628719934
5921.862224429702;5959.181015033204;5904.427589782577;5868.256909192885;5675.713327835927;5496.502991621381;5304.4530837608945;4142.750800794487;4910.00053457082;4976.477229317114;4405.076294077284;4700.448622535623;4456.666633146377;4163.283272357183;3897.0751698327044;3084.089188444453;3513.5915566476783;3308.7176490091;2850.025928805862;2413.541089279089;2197.6843919805565;2152.91549739042;1999.203385176434;1712.7110439857443;1755.094462753852;1547.9399817506937;1492.7677692686893;1437.3545557340285;1374.351959273974;1303.4099519425827;1265.3664073747632;1329.0611194974726;1175.867882057108;1159.6343980811257;1157.920638941459;1127.7462238881185;1225.7887712063625;1102.9818232804382;1091.2852208487898;1096.7538009054188;1092.082303269176;1084.2649870075447;1092.6440552276576;1088.523102404492;1086.214696016394;1091.7746593860466;1095.9113012514144;1115.987729805864;1100.0432890894162;1266.0713396671722;1523.66326904973;1812.2019668769967;2035.0495071448627;2082.9160144031316;2087.3918961455724;2331.8996922668007;2475.1149711974754;2541.999983774264;2690.0972681897397;2430.957755540336;1743.2006332836663;2615.1307175252855;3074.5610085617686;3107.1121991518917;3058.0904643431763;2268.549114258383;3318.794979219391;3129.6367971813056;2924.552408635264;3341.4711296989058;3425.758713732174;3702.6349179874783;3815.161086519724;4167.834081753917;4650.421654764306;5002.552120000624;5228.731474134373;5173.232971153513;5289.773002730719;5365.93437475431;5650.521509752862;5769.946994465099;5708.876960873888;5620.162064719716;4231.194286846869;5505.177755541808;5813.900088789898;6050.19397794068;6119.996583967708;6173.380521082605;6035.583935399007;5902.8542818127535;5752.2124366944845;5873.735382155401;5906.704815582942;5585.647236042985;5893.720969270711;5652.677209181633;5824.171215553073;5982.257606787467;5995.370309639196;5799.465014039706;5956.230948976974;6035.512236417853;6007.832842868707;5813.78022020388;5934.572797345942;5710.813511962118;4948.3146845565825;5721.779338618107;5733.792870741325;5793.435983975967;5511.900097151485;5565.8291452033845;5148.94946782598;5318.579181247282;4935.85497401334;4208.598170167341;4556.9512388853855;4209.97829312198;3998.1313932069056;3635.292987059421;3528.590277715732;3771.7304013182115;3225.7816908742657;3453.1945410217772;3189.2788753483696;3200.350247355132;2945.6422728730345;2718.824496412681;2790.7176462797147;2542.9097991706108;2510.9279757401823;2317.095039976049;2276.759142763745;2238.3927623654777;2158.502838036176;2134.990609891083;2112.484089008122;2091.6991268373163;2061.587749960929;2015.3335002947442;1960.93398069669;2015.886915621395;1909.4104683737078;2011.914189455044;2042.1604446927818;2044.4750832330897;1979.0980066344296;1958.0027718968672;2040.566525977691;1997.6664117854184;2057.1394562273385;2050.7365761818924;2057.6604688577095;2001.209590100514;2037.08240248409;2029.1939470870652;2024.9281714688473;2065.8849297308175;2054.6744054758515;2083.610227853423;2084.6048369972373;2070.5418420588344
5899.528938246738;5739.256528896949;5843.914164692362;5753.444099111235;5735.703870110545;5398.512819988664;5185.086152722524;4994.202678080179;4004.6753635238497;4819.7745667770505;4775.256319342434;3984.013090169579;4268.172887947485;3964.2354315554426;3737.9800128362426;3527.8894018774085;2958.626292563555;3267.5617838808535;2788.06203912058;2363.057689492193;2279.2700609605786;2094.4900950060014;1825.7444127860085;1821.8560065910929;1604.72076676889;1512.465928487019;1448.08917930899;1381.515403146162;1361.0388106738956;1277.7692694243137;1189.1308368856967;1213.6003273940719;1284.350458402519;1081.2528180412942;1073.565065066472;1135.4271014236433;1095.6961453878976;1173.3838538320847;1089.6234060986662;1088.0125356962121;1089.2133898755387;1088.122344647451;1081.6136220251979;1081.1552268825808;1084.8338436042955;1085.90393483568;1089.5825460972796;1091.9821181698708;1109.8279687926056;1216.4124457389462;1420.8296004902322;1639.6866511799144;1703.5435642766101;1867.9237544913253;2018.1471181376469;2113.9448191452507;2297.375831390568;2461.3758571043086;2271.1673765776227;1668.4276368268575;2505.620485121292;2806.9475179183532;3058.647629773855;3043.0071693065133;2203.100156177046;3194.0697557129774;2681.4415815685893;3270.0515282002066;3306.722471304523;3174.5479715310416;3299.465022261011;3349.341784894685;3572.5893980021297;3930.7732958095235;4397.476685367179;4782.454306794058;4639.5337434928515;4937.260021134134;5046.003350471883;5311.697028875766;5516.179259646227;5341.533415169517;5502.827081330246;4101.294812478593;5323.559286952492;4858.634399843253;5776.947137015775;5912.514676305922;6039.368817160599;6013.56735514902;5911.579256966621;5787.495616817023;5742.747477243542;5720.817012691683;5745.773198946368;5704.314602228093;5171.474976095395;5430.871815774359;5632.460738606156;5703.837130286407;5835.106111601524;5696.82358483256;5766.1202892921065;5977.948876509672;6100.825036511127;5923.140443313185;5587.8525042583315;5597.352293876655;5600.378845334246;4866.456133506814;5609.877590735681;5485.667593036007;5589.22399633273;5076.845265040109;5102.693037361858;4720.839402684731;4776.557463926223;4655.99507668405;4092.8965443159655;3800.381913905952;3698.457669185335;3614.0041760940408;3536.25038653434;3444.3633823627083;3554.102895295359;3105.634853180681;3253.366905369631;2938.765107509715;2919.8793192796816;2807.687073466907;2615.431299802682;2569.031227940121;2380.957784318293;2308.8570380546284;2289.457245913291;2184.611116876505;2216.0844483736187;2120.387605551899;2108.9508818065074;2088.4287463905707;2055.1329362733163;2021.8591027403377;2056.62789283507;2004.5411733380333;2039.3393160658711;1905.9113025573474;2037.7936133041608;2039.7752900513256;1948.0903224542926;2020.6894866040825;1958.5299717785824;2039.2696454317106;2044.5711581025485;2058.4211854319105;2050.6327645255883;1973.931945989556;1992.3278611844098;2009.8218120374404;2057.1603472442353;2052.091183054827;2072.580463244772;2073.1658254832305;2063.013258386946;2099.404255879806
5875.080527880416;5775.542108421234;5635.49038202761;5690.394523389012;5542.026612830716;5471.648901025686;5048.635679866195;4850.4007812986;4804.342690708914;3871.500820633479;4557.487072639493;4475.888607920619;3692.39394607064;3830.202302063534;3491.147285257583;3440.618537734714;3332.9950455018484;2834.7384548082687;2626.269809305653;2379.9042513641093;2188.659422606275;2040.418333572266;1899.177290800797;1813.3159357215145;1621.8068509663203;1493.898712809455;1439.3107503438719;1383.562730806299;1303.867182962515;1290.5483230725936;1196.1250756448221;1140.7293517390976;1162.7461376248598;1237.3034974470324;1064.9128370347444;1069.1296705035584;1119.2683766542873;1079.8190474683515;1130.133934011546;1083.468887589714;1083.2071230549373;1081.167081409968;1081.0487410990663;1079.601353833341;1077.3300708927186;1086.4163109101764;1082.0898944405785;1084.7560236613836;1088.7486788712508;1091.3549281876822;1082.5847245439777;1085.8321153560828;1248.3050670084367;1648.1310845795401;1760.9833902007413;1923.3854998852812;2079.2093714362604;2184.563232606832;1556.1259497250308;2414.788852384619;1857.311631024265;1923.8219249058238;1969.1152070493417;2126.2078497060406;3019.987031760917;3258.005033861989;3341.742278729767;3133.403603158293;3309.0968616949726;3299.465022261011;3269.6255639564492;3300.1305090357296;3414.339725518988;3808.276983628864;4160.448365167487;4147.123021033005;4491.3800957525;4711.140767596386;4911.346767062696;5248.172640496721;5301.449774019637;5210.4790917759165;3929.4865747900926;5263.160853841035;5379.5720857171455;5640.259437433333;5497.9107427540075;5871.783322314759;5872.603521167821;5812.658660960804;5766.700049373858;5752.045160631946;5756.039862738233;5692.618394358295;5491.818573576305;5110.937900440929;5022.198802432538;5012.526803890718;5508.5473297477365;5642.710393028277;5757.874930012771;5375.169523169918;5761.293219298841;5900.966597644889;5968.95654911549;5928.2666996278185;5704.579199585418;5441.772478140705;5471.504222856163;5508.454356170714;4772.669136832103;5439.035032204818;5393.256665895691;5241.8033226091575;4750.565294234293;4629.148460202685;4349.1754584647315;4298.031594085418;4123.730670267572;4140.601574387167;3696.3899296769946;3658.6690610463543;3540.5527121281734;3415.353226749616;3223.6444344511697;3191.7436058432672;3017.641164383735;2913.313929063251;2798.0895203246178;2678.029334526855;2647.3529904070697;2543.7566375860874;2410.7333550433373;2331.151019378743;2269.346021496846;2270.472908688114;2177.843933011545;2202.9029470162363;2121.516079859682;2109.6680683288882;2093.3492647674443;2079.351590379493;2059.6806281696713;2044.5722377057232;1980.636948405786;2031.909183557707;1900.93459436486;2035.2286835594082;1921.708550012746;1938.9361519129966;2029.0914698475312;2041.2080571265947;2037.9794311871397;2039.9122202666208;1944.952216482443;2044.5306545497;2043.5299417359925;2032.2436836093943;2040.5752819891318;2056.4271127835686;2067.105897087145;2071.7042202796615;2053.733369693607;2220.4978480186323
5780.352024003989;5704.578549458729;5595.092734302209;5406.919329272205;5444.178972435413;5207.080501404489;5172.299673055211;4734.692483962906;4662.055812385994;4696.191890191634;3747.9342969670292;4206.579496200709;4111.166101351948;3489.252621928386;3512.228819144159;3212.724710055874;3165.912621854169;3002.4876483168296;2708.536415570094;2380.1926973850973;2284.511985621955;2181.1031123656544;2238.446041085301;1985.4461651979527;1804.1926728418816;1527.543156488634;1409.7032695085654;1386.7859238414367;1332.452528958036;1203.500742800236;1260.3628039227106;1144.6412696928292;1081.971492997835;1124.982430388828;1203.1233158730606;1066.9810839865595;1074.949078772588;1102.5525432559189;1075.9183106822884;1095.5727882608867;1073.2882976361652;1076.5001046590346;1072.671071513621;1072.9586394417279;1077.3395813647676;1070.3855382073093;1071.04890469578;1077.8753609649152;1078.135296524727;1177.3249698209465;1279.0479270467558;1429.4288674929153;1564.9783509617541;1568.2084434656458;1739.926855501537;1895.7600800366044;2037.524271174289;1507.8915702525987;2366.6233444368722;2466.7666724561964;2432.1672474303446;2689.0596505440103;2947.4290379241834;3054.006006938325;2625.1563500307716;3316.9475796912425;3406.3391373026857;3407.9407185127034;3298.403108400615;3325.6063019819408;3320.5754603030114;3289.2019308464974;3610.9360742027234;3774.505052769095;3872.379791442075;4217.311829148048;4370.558515404868;4514.997230179353;4985.824724435939;5091.432128803233;5199.306827505365;3773.8034346756144;5071.755232543945;5444.628096118509;5613.047287076906;5740.9385896288495;5845.255879153925;5903.068054359839;5946.385377833551;5987.991790465716;5928.051481879464;5828.469511770807;5749.614986508377;5748.278330731928;5540.651746360289;5633.31959755153;5605.93334216055;5424.495760122902;4896.46841746429;5597.802697038602;5330.5066361043755;5113.843995534955;5726.202086325118;5930.041812187943;5887.463796187461;5827.433691373084;5651.366664785039;5610.270132364172;5343.501523247891;5474.783900417991;5491.056840219811;4681.016496168564;5353.99981622532;5273.10628654621;5158.687169149796;4646.376157120754;4551.041379507422;4226.558831769624;4139.581953083227;3777.4567632243393;4080.4165498450807;3733.2286150033046;3467.575191026514;3331.2091581955888;3310.7438772635883;3165.8178021323424;2968.7871408774404;2942.476344206833;2746.146307366885;2681.2516256218955;2608.9731520633063;2543.6776726138373;2480.645429112938;2424.089479383742;2365.817231435714;2314.2484669330884;2273.9446607232207;2240.75481819269;2207.367008882268;2179.9004329476907;2147.9414524228755;2114.6556087370996;2073.5529279832676;2028.4519498525801;1993.8619473874228;1960.079822600051;2034.9877386239345;1895.2017174970297;2033.0142993852555;2046.295414985038;2004.8562033006665;2029.2207329137705;2063.66144951282;1935.7640330991662;2025.0157033715236;2024.7808858582835;2045.9302587649604;2048.864450288355;2037.5227672511169;2059.2939411141083;2057.0021342957193;2048.5403712407638;2071.769732706995;2415.31386687079
5320.46411068089;5683.207422894668;5687.224471956957;5294.735519127404;5019.90295856645;5127.853730470477;4835.377023508965;4878.287486573978;4411.003428393;4413.7583760572525;4405.280487877193;3630.097975233584;3816.341993394312;3728.1484199039073;3334.071321455441;3228.108840200422;2870.782623657759;2829.49450361154;2499.0338439395496;2777.1572198183453;2397.9886382924574;2407.7236531067288;2361.0158544033916;2190.6845174107907;1544.3160886296564;1506.904019453254;1496.1035616879003;1322.5060860645804;1322.840247990327;1275.1082197410637;1124.4772235195755;1212.0145814680695;1108.466593967882;1055.889938434881;1103.0900960622794;1170.134830488034;1062.4334941809416;1063.4773176946728;1085.1695051154356;1069.6279312550469;1069.7607928723364;1065.6499953175971;1072.206723769928;1071.0272541998088;1069.5815839550742;1068.0573743442624;1067.1462885150754;1068.2441664536213;1074.0698722170664;1258.3060293827698;1453.2099055533886;1548.625254628144;1559.53648226027;1639.9205770742838;1818.9520491094272;1939.3036179596738;1461.200750923469;2279.9728648125815;2339.1450957502325;2639.490576167115;2777.6210257671505;2795.8955482290517;3062.5739739095993;3139.3502714604197;3279.781874568214;3189.794498546596;3446.4130273295027;3457.4044981003112;3409.474615623825;3329.537482691149;3320.94753352018;3375.711368405446;3287.762508692614;3621.7490059612087;3801.264334559331;3987.6739577645635;4086.254490821588;4587.799974422793;4881.493099058414;4972.106145505246;3623.1460642821817;4837.417604415696;5267.872560154041;5492.489429124364;5646.609479532028;5809.327112249428;5948.461300761159;6043.803157700162;6058.586415398413;6065.872267990389;6064.788105283342;5934.401764824102;5768.346347354329;5717.34286949472;5737.038900187263;5791.446687843167;5866.016104790948;5719.725314685198;5630.230010447818;4836.707644958493;4636.318425281965;5439.356135273178;5614.970571408669;5831.519665833519;5868.935086550358;5708.740894130577;5550.731771562652;5422.12008115893;5420.963239851304;5235.508036484833;5532.426860354022;5391.086548254198;4584.709289846294;5213.59632460307;5064.71376677616;4884.545023533294;4323.520033096776;4416.792457302183;3863.10883347981;4018.5098486000284;3843.0161571368258;3727.237203449797;3431.767835308406;3402.1432599145114;3416.2938350109384;3252.657364035889;3100.5084023546738;2903.9379845647713;2946.3641238863233;2702.587708210865;2599.8275157372204;2472.2833993915897;2405.9056215894175;2391.475778493073;2259.6813044772903;2208.4680396118742;2180.10125720957;2178.396709588212;2120.7079926184247;2121.26862794826;2087.769306207844;2064.1883352390746;2051.3789754765044;2028.2538685766308;2011.9614672255507;2055.9014966333493;1937.0885109964843;2029.267148349169;1870.7699533924583;1954.6562581492726;2043.8008671818047;2048.1114539663836;1926.9316578930511;2092.8507208524793;1991.848343051579;2028.8237873131789;2030.6220708342867;2023.7143689437776;2050.202814039481;2041.5407250296907;2047.8379966701982;2059.9233575945022;2308.660037222048;2224.758339589134
5449.09840045167;5504.912973253755;5545.765263019608;5523.751909913428;4931.864956165351;4605.578731203372;4804.450862657552;4533.930322098131;4638.966570558752;4095.359313041003;3785.7277726827956;3966.6735637728266;3503.742603534359;3395.034568674863;3271.9574315966643;3138.8326931471634;2897.5242351109414;2635.7229348503092;2854.4191447452035;2547.2027742695204;2661.7300388836534;2477.9580376563613;2304.440600899839;1547.741689135897;1795.9965705137183;1528.8280869754471;1365.582026987132;1403.1515914358956;1247.9041807708454;1259.2978925242096;1234.4278327211814;1085.2014171498722;1171.1776947845096;1090.702581105621;1055.1698234140022;1084.6537886345563;1140.2248263882693;1055.122603031873;1059.4457387395396;1069.6002344356375;1065.137871367741;1059.787707481371;1061.1011880273504;1066.4068897312136;1061.5189809252447;1065.2188870700857;1063.3348773205062;1063.0324424050668;1074.0987254260585;1129.7275963042898;1367.6218511793254;1372.8128427277707;1503.0091017724926;1699.6991190477702;1813.019266532514;1412.056342881795;2261.6780561202463;1835.0849760907763;2193.7942009392796;2405.883033856218;2636.3669605529008;2844.3729761726795;2966.3757834582816;3168.8631513563764;3274.218013681289;3414.9978064623815;3479.585911861683;3457.3847856103607;3417.79761620811;3343.123136960356;3322.052102704108;3279.527595681751;3476.608501544459;3507.5922891771575;3711.483584282096;3757.671007544544;4041.941110017808;4544.308055860982;4671.334598257019;3471.9033404597544;4704.031134487483;5023.313502531575;5174.208268024951;5346.231687119933;5503.5734047951155;5623.473265756062;5858.4089081643;6004.472320765175;6150.785053818003;6115.166754738206;6154.33987973418;5980.714578709445;5777.140558395155;5781.135400574625;5767.115146244869;5803.221979547365;5879.95513099384;5828.375337929567;5624.1613630814645;5612.204063910118;5466.041392908499;4453.341668899913;5502.476825392487;5710.806954532663;5728.532273730167;5651.707515614833;5420.877009777621;5405.223410268871;5192.473010695014;4966.8278203639875;5266.980926975644;5307.1560398617785;5178.167584442461;4487.234181269787;4899.185550692193;4821.43237960982;4717.000070281025;3950.932589152169;4369.403962624205;4214.690328033586;3900.31746239376;3676.988484946806;3620.3255368794958;3801.815194499694;3472.866778666517;3245.5798176612357;3161.4607395374355;3051.7993656215417;2983.525176702951;2899.9390228592224;2549.10253148506;2535.881906851047;2390.3635736291485;2293.575205839487;2332.3864680870624;2232.8837161821316;2190.894508275452;2093.5445834459847;2155.102137649595;2101.930413870256;2099.461203687664;2075.5823345517106;2061.141959752718;2057.2807830019906;2044.048369496873;2016.4707969304345;2060.0237747112283;2034.036778277356;2037.1323476418133;1865.0630004356872;2037.1515525605105;2060.3569087468227;1901.1707694766415;1956.5780201975945;2128.172658248423;1970.6115315422808;1993.2312932494547;2052.3534828047555;2023.6580238177798;2056.5813166596395;2165.3765743366125;2431.933046492561;2193.904807644391;2625.382980284068
5296.154372578296;5420.625832031137;5415.892739141333;5266.700344563578;5256.516433537012;4534.5029732134335;4403.294920818034;4532.536049836457;4296.854077920241;4375.932838723875;4113.195785365146;3596.562487406972;3695.869889985525;3354.2551619786777;3035.1807726248503;2969.098792559233;2904.1238825791656;2902.543193011715;2737.438517186228;2683.7395321789213;2548.8246727081155;2581.9379150638456;1550.8149906006229;2055.940194811455;1838.5219446865071;1654.1153817798345;1571.3709010602984;1243.420165131488;1302.8209469098797;1176.245754134513;1198.120945261946;1180.80568038428;1063.8844327552165;1139.4812273867255;1075.3683870461114;1051.39895227229;1068.1415650106192;1112.8189646507321;1053.316884664102;1056.787498147753;1059.648240776824;1057.6186950134625;1054.911841304142;1054.8359191413251;1060.5681861406551;1058.7997590161112;1058.009060864138;1060.2477024012546;1119.2436601419472;1278.557636076942;1194.8830736157347;1410.1343300587077;1647.418185782692;1657.2138345379708;1365.210930372385;2090.6822579806553;2285.6372746727243;2461.2499722898506;2647.3177331262473;2751.0547815435134;2855.9406764815844;2966.4305971287035;3101.6107285065314;3201.260077619871;3337.607435028583;3405.959023591519;3390.2898420909382;3414.3510403934156;3369.7691081386533;3206.4896019384237;3260.768305827504;3458.405330004362;3500.0864965176793;3600.0576334799366;3644.991586307606;3729.6110197288804;4094.6053364224567;4287.944365314048;3307.9357150381343;4438.7617928931995;4730.491282078228;4976.1355927301465;5085.521338434137;5201.284674554792;5261.624802091123;5499.325540075224;5677.286287742965;5876.281074972283;6002.6075908111325;6029.194246662082;6011.633601357595;5909.705539183065;5914.357346029319;5856.169247121106;5859.737868189692;5843.382327479574;5887.03076748533;5836.0932315182745;5870.322774876442;5761.633641920056;5641.005902770072;4253.431831554035;5111.491960838173;5586.166398083244;5662.24723109492;5615.982455026553;5512.667687247138;5061.259023959017;5134.253182993065;4810.140506060961;5072.390845215759;5093.271495205341;5003.527918016049;4943.458475856098;4388.291672285983;4742.92891906679;4041.587042247473;4498.506527441608;4469.827163864287;4226.631590931565;4184.786114855942;3921.4050745113286;4176.479677068182;3954.4219813026607;3603.8123317148325;3575.855355990822;3296.4792625599525;3393.3376781711527;3120.7322357255584;2633.6823908440124;2804.9681399189535;2661.812405235109;2473.831658589606;2365.3769658911374;2240.7165951990005;2281.5710988864;2205.2708231211977;2171.618168590902;2084.0450186843823;2138.5394909330776;2093.4292836885584;2093.0188017545593;2064.0228238270624;2050.6025648641585;2056.6086587129953;2042.941165578704;2044.452121606692;2064.401994270272;2011.6119426695914;2035.2855041962735;1859.0831289660623;1876.4711722117127;2079.839481287348;2026.4953672137376;1931.4286197060674;2158.5299966560083;1965.345829708061;1996.6880795358206;2050.3309971891526;2097.2140988263714;2343.3521519398896;2436.9973475315305;2720.710075803809;2494.685462983893
5021.126876302564;5194.004705107784;5206.831271303927;5065.980506819298;4865.2190779895245;4927.472567661038;4222.579793759287;4300.904073861244;4276.199898027406;4058.6375646649817;4086.438605609062;3890.043092916428;3546.0834358951456;3414.6660085310637;3262.85084079517;3250.655687343228;3107.5289932785904;3074.959697095713;2853.6411089283333;2609.89283710722;2262.7270138835015;1686.4897974672494;2329.344583302384;2091.029502463392;1853.3836594944414;1800.2213163940787;1240.4321913285062;1475.155078264093;1247.46355057868;1198.6454746678405;1139.6513316562337;1151.8990470513836;1141.5406827957404;1049.5082087641103;1105.0041634334339;1065.4193812377566;1051.2044995516803;1059.0377140418555;1086.7477731155182;1050.6252603190892;1054.9764855054195;1055.5745767235421;1050.7463804666509;1049.9025063649083;1049.8044599176374;1053.8100799422032;1058.24902540718;1059.3916310089335;1126.971844747041;1048.586117166391;1173.2115803677416;1459.1276072456199;1463.1849258220072;1320.0778304283217;1946.8074745266613;2008.9489764982495;2219.0224248331165;2431.5474565798627;2612.8734279769337;2714.986226815014;2780.409473010837;2959.3293678891646;3022.841143909635;3122.747621444782;3183.068555679142;3176.467150093838;3352.452554145912;3299.31242831823;2950.7411069550913;3177.7818512580575;3447.604031858687;3489.2742998219396;3581.2501717654072;3643.496000928895;3674.9861290636104;3811.0919131968153;3900.4161200642134;3149.343759985772;4133.694615904777;4396.339221888909;4569.129142930195;4758.151569133266;5053.148709514047;4783.865298758268;5165.30640749745;5388.380217066668;5478.274646251653;5634.862936866382;5721.633111718535;5846.032607959372;5930.574051250895;5875.8323171647735;5847.791653189679;5941.667228857534;5916.448537897551;5863.931964653344;5904.304419662523;5861.050163108501;5866.379467647701;5758.987004488754;5577.757800143803;4170.022139061268;5466.565448281439;5612.871598402311;5590.534938731422;5576.850359322354;5535.03757027032;5298.041381487634;4656.284212340644;4982.06395584167;4606.496957760211;4938.860470336704;4948.022499088465;4777.950706520565;4804.816987066273;4295.12858736449;4776.509562154359;4598.6809090569095;4508.239284583962;4482.850965336722;4308.594537464769;4414.370796099003;4314.0890694824375;4083.133860978662;3990.650205521774;3652.7087056550085;3719.849776651861;3469.08354139592;2831.8796827375922;3067.5687998878443;2995.9931041225923;2862.3680593223257;2654.467748233806;2409.7192253712096;2325.586464837877;2262.458065923573;2249.9041569476235;2179.5552120743164;2149.4683934015843;2070.9384963251455;2120.0618034677923;2079.5447935644856;2088.3126118169844;2057.423273257565;2043.4299999043164;2061.756602850132;2038.3838040031428;2037.7637839231643;2071.586822704003;2030.6818204893366;2032.8459318703121;1851.2489185956556;2025.8600311799278;2125.2292780883395;1907.2234547825278;1937.4244300110272;2201.3824384717996;2015.6213479955559;2191.1953645286126;2268.6236242708433;2385.9085927697447;2605.7039377622236;2693.767664695964;2864.5797254634776
4670.249060572187;4701.396389395091;4820.932507996573;4881.671668878316;4610.056510841261;4439.178518749448;4488.443899000573;4055.945053377009;4110.012885041526;4034.646507012562;3888.444936939661;3833.155574872639;3770.184040731983;3499.755138529316;3469.5221256644313;3389.8025114371435;3309.4679769729314;3126.9830517436753;3001.7175446209244;2780.459558643794;2403.1424363806523;2371.9258700497026;2258.499295712006;2255.1781434625223;1932.333109216735;1237.155505461746;1727.2315323580424;1412.6622264380862;1569.0851614461744;1419.5214527437784;1111.698055432697;1111.8323814616347;1107.45421589657;1105.3133228921765;1041.6556741747204;1078.7493284639913;1056.8849864439308;1050.7170447011158;1051.4224967513087;1058.7249869356738;1050.530574362404;1046.4721575103435;1050.2490848882076;1046.0788780251096;1046.2080128993139;1049.7738218972222;1053.6563257941943;1056.3719181201818;1060.8043503570743;1076.549073094196;1127.7457785526703;1185.2269891051174;1271.709054181526;1310.4778748659164;1351.0391045564538;1401.8594491150811;1460.2035087730878;1516.8339375672122;1566.314218518302;1750.5767485559882;2615.227006194374;2790.255173854062;2955.8014144322146;2952.125944573357;2873.3675674408655;3109.0142005007287;3143.9413042067704;2738.6930359539315;3248.054157835047;3376.81595418142;3413.917210455655;3530.6776619191583;3605.9007259264313;3609.802649510419;3676.70509921008;3723.1744368743234;2991.164132785007;3841.5986802589982;4111.2219047259605;4110.281764174995;4236.9095074581;4693.046723180254;4355.408157770267;4760.27184670144;5018.167122863548;5196.120312144489;5409.043601641617;5553.3317415656165;5571.973997614226;5652.209849222974;5740.339592026296;5763.965397326563;5632.364258343498;5794.889236229714;5759.259467406237;5639.511728492207;5787.516794022613;5853.013686721199;5714.864282844617;5745.417913009855;5483.3658127785875;4091.191518208346;5484.990312684342;5618.049201602769;5460.008449869365;5492.136048451555;5461.545909135832;5223.198896870448;4974.1878359713155;4329.93517583721;4862.11438829582;4553.2546060451095;4879.327193288744;4825.175733867816;4677.17320511845;4873.504781002568;4836.351816981887;4692.085236450594;4714.685033697506;4576.0467459991705;4428.95100694758;4495.905173882988;4377.383161941387;4270.688050939501;4096.376665597079;3985.355133627189;3635.642546159977;3154.337858166625;3384.9695977960278;3360.2017803657723;3241.585537521874;2990.7266664645654;2594.090793890294;2533.766367487821;2481.581624787758;2188.7518452762138;2218.61001655459;2233.7493508137454;2166.3649955942324;2120.9600813633365;2045.5798814522145;2103.653798339367;2062.827057098463;2080.235794185505;2046.6992270919686;2041.0875261806118;2063.92403199295;2037.9230909451876;2029.8712780891924;2081.9094108604863;2030.2776910602538;2026.7105985326384;1843.3404655396298;1874.5818174637752;2181.382529118185;2028.665479166873;2079.015671340518;2220.2938288424552;2384.376848005569;2503.942615320471;2513.5637024441426;2622.587730773454;2754.66838282406;2851.356342647337
4366.120814873646;4564.623645878441;4486.378761379374;4367.840732757639;4417.02174580186;4123.410632012201;4021.6614732386683;4012.236476929997;3846.8070930144218;3917.622303314771;3922.410577938566;3799.8673148755875;3711.435163219345;3750.4132366014633;3637.9219960335263;3570.9029561686425;3397.9729090295855;3241.045582506065;3081.038419867112;2939.8871587933904;2769.852734306773;2605.646764223337;2474.2268176705097;2224.1318357311306;1912.2691331166075;1806.9881567885577;1715.7988487379293;1803.8196701197476;1753.131770085513;1540.9626151045313;1307.3488047333626;1063.0234633196674;1089.0109801062945;1078.8090741050105;1073.3244603565918;1039.7505849072513;1056.7581941790309;1051.0712453652764;1045.1232390809441;1046.835465072823;1045.7473635516462;1040.812463288422;1041.0135105687805;1043.7630941286898;1042.6503064805456;1042.7013636559618;1042.521116052635;1049.2006878211237;1048.9010055406625;1241.144842693594;1114.647282894985;1233.2583436588052;1554.2055753945674;1900.5262286758698;2046.5341900841936;2162.3392968133953;2185.2475656499405;2380.3055176242865;2500.6147707568293;2637.2021679826908;1814.2541660019538;2895.001987936668;2231.7504856258533;2337.640612816656;2424.9429663741043;2490.2753789741632;2674.375738972724;3230.1002368980694;3358.9109682776266;3409.482288852048;3488.269277625221;3561.0475162289545;3616.392780808566;3302.0912242322797;3580.3921776619095;2832.468270925659;3671.6544717520696;3704.5247826724985;3779.2088289258713;3801.649148297835;4248.497546305256;3940.668703718227;4343.397824911026;4717.26192807547;4816.379848738685;5078.86094420964;5214.903583837398;5421.3204109907965;5559.721735567266;5520.299844636082;5564.429314528819;5649.20284645756;5629.2960543413155;5313.066137692445;5400.833034834572;5710.973193924319;5826.944840922055;5792.432240796079;5572.245182027977;5497.262289957182;5287.010792942854;4001.929801112286;5298.969930283383;5575.991934445616;5381.484781035895;5436.404860417682;5415.246938187238;5153.12713858009;5044.620591007639;4934.632006550753;4136.473046223622;4627.087816352132;4481.608944494579;4678.5731859925145;4843.191639153129;4911.913680811318;4850.878168016419;4817.583159720967;4795.245251010367;4735.256978985019;4567.913792894591;4477.312293915542;4475.675013412876;4360.431911565689;4261.850103347775;4072.695923642165;3673.3551260992367;3658.626873476874;3624.419506475721;3532.774555754981;3301.841640557646;2957.5057846280256;2936.537527883936;2819.5407538045997;2450.718318165867;2500.883133057138;2502.1995597127166;2364.4530997156485;2201.2531046715935;2141.4537185809254;2082.6525851449255;2001.3543921412252;2076.2151231383236;2029.962202387493;2066.946478236628;2044.8490716215733;2040.2811527518775;2062.088622342047;2021.466984101347;1937.6964293918031;2100.680476963436;1821.195731617694;2007.2617591731123;2016.954147751192;2003.436297192632;2211.8269838977035;2129.8061529141055;2473.0008497253234;2249.0053602774856;2746.6367797347107;2750.2280966412804;2668.3814688232655;2887.1735631624383;3078.9021733450813
4146.276764432689;4277.1794368637875;4344.109790654002;4014.974640082825;3732.3169562993985;4056.1784832546796;3505.5171456879184;3719.3632247736255;3301.893412863828;3951.8115430817948;3909.447055811042;3862.2857286993917;3704.929704624213;3680.9161607089522;3692.1231843506735;3635.699455879931;3488.729818969439;3293.8347736749697;3132.212928581215;3036.7542788525748;2928.1751394505486;2752.4599652509337;2513.7999525145738;2346.6191590112453;2172.2434697083568;2060.3581861693515;2023.8319815932823;1977.5961349684871;1766.573336028278;1539.6156924357815;1014.5514673910802;1018.7611599131919;1043.6605787969434;1076.1663780096796;1064.19392569609;1044.1682230284227;1036.3722465134583;1042.2982795239227;1041.7256824478768;1038.5499316304445;1041.2148685385787;1039.2683281252625;1039.997077276103;1033.5214780498736;1045.2481280882735;1034.5057933666185;1046.9841994526846;1037.2194081390553;1051.5490793235972;1064.9702875814928;1189.1111135938563;1536.4936749898143;1772.3160463618992;1882.9626857784183;2090.684459907871;2262.903036885695;2483.5094890206497;2601.926605154738;2781.1373876032726;2778.111775721783;2773.0442351213555;2025.1050076074775;2949.5514575178245;3028.883888698178;3068.178653618787;3119.929636665174;3160.2199570980624;3257.9130228501376;3302.205910988962;3357.6138273644287;3461.9528234754084;3550.6735187188638;3546.137781311573;3503.905771742802;2680.2420759774263;3620.757612945246;3472.8507605690006;3498.8670788903287;3549.9232221722773;3859.7558477900225;3631.1576267820233;3891.9839457475687;4344.65503704324;4417.662215311791;4621.196783412464;4943.6920630743625;5095.371621087295;5304.048974403175;5309.409018895671;5464.158062410188;5538.175771370685;5436.984671202828;5459.272367592375;4753.869040377875;5539.278145919212;5647.190246230186;5699.321553954927;5709.90494900333;5612.177840466706;5331.407161286459;4977.096504807263;3908.549908127085;5273.962819290633;5419.263131118034;5154.3694269341395;5368.294513504974;5300.066391196424;5135.547835861291;4822.1983207576395;4873.807236392551;4837.093551271399;4044.2715012028616;4473.408532386889;4671.582397905573;4792.441623822391;4898.164855226889;4873.689497920541;4786.646791554802;4782.957081773793;4700.524167889729;4607.100344593682;4563.044880952206;4518.033540336088;4413.40385980435;4191.325540353633;3841.832435744665;3893.6037017423428;3850.210546460486;3781.0314482341005;3657.965072190616;3354.6158707246163;3169.7320649863836;3078.440894977924;2786.3230732287434;2842.2716039742177;2729.181299295776;2556.445493076743;2131.6432163258746;2133.2652232856976;2166.4956799952593;2109.527992588806;2035.8716871598467;1903.4660477250804;2039.2925752235137;2039.7350786045631;2038.9121180146617;2034.1090892766038;2033.7084884337187;2066.566419036753;2021.6095861971767;1813.4018829811698;2054.097275586963;2032.2028322726787;2040.3374958369318;2023.7892414718503;2494.514616060095;2274.1522447622688;2420.2277082208616;2888.216324071396;2364.363316320548;3058.652691571829;3103.0952102977294;3136.348513724079;3441.078521581006
3968.81379201303;3903.357892020497;3952.950494508607;3816.848332137273;3424.1523710222996;3295.7542723594656;3573.0158043720144;2980.27465020728;3604.34091771626;3628.4717864941963;3882.9836610835896;3847.061856276237;3729.4815448926333;3525.072630791858;3614.77471443878;3530.6891529604986;3466.9883055319174;3267.785604432403;3197.3682377587197;3050.7084619819057;2868.8696000283503;2650.145434995498;2462.5865375121307;2356.9259603183377;2293.422814684581;2223.4271826405716;2072.3959152862203;1841.5116534183435;1437.932823631792;1016.5285190445111;1014.1065307536228;1014.1065307536228;1016.2080603985573;1033.4388660863824;1059.084324011299;1057.9915592235348;1040.6128950193406;1036.8076777536553;1030.0420348143234;1035.2594891448348;1036.7725364193107;1036.195285153327;1031.6056340116534;1028.494310450203;1027.6763772801364;1039.098631150674;1026.6146601944056;1042.290137471251;1033.5789983278041;1147.5112100999404;1365.3019709642354;1464.6758806606163;1733.1515307086906;1907.3353941978444;1996.9395679305608;2232.0821273033393;2430.7194670794975;2610.421513016025;2776.684996305718;2887.637525472573;2793.458029380235;2868.5844748424574;2962.1820268579963;3152.4607753285095;3124.894070383873;3173.2594685470845;3166.3327460972264;3144.287716328848;3126.2731189731453;3273.70328205291;3375.9432683629207;3453.9583754097844;3486.3010478996243;2526.0922008954744;3482.0764067513232;3445.5450235948424;3307.7848928104945;3306.8694357558647;3543.71754932426;3462.149546447557;3553.8845072606077;3898.450289091836;3963.0826695668425;4069.0037905753093;4410.500383850524;4721.823685829619;5096.735204203993;4904.111961983652;5120.280500345289;5289.46401586223;5311.725671131233;5473.381244402213;4236.092682318669;5453.697713915231;5542.860213172562;5381.415449426333;5615.6039034415935;5638.209005908737;5497.8117509239;5370.486332876722;4706.661260780898;3811.20765328475;5143.515343043246;5130.119399469399;4788.311755357283;5249.947567959414;5269.965539636791;5023.949295925875;4723.212171817144;4458.617401063764;4719.2721995352;3804.354163609189;4233.0258736330925;4647.994271258236;4785.191907858145;4914.0493762738315;4764.540888516001;4733.582998246038;4770.967829989577;4608.187229512878;4509.657283571767;4505.557643640004;4433.129210054807;4390.76013530108;4058.3639927204745;4017.0736033753133;3949.4616156175903;3865.2787121331135;3784.120057452536;3650.7466415524527;3494.043924046829;3244.3755491215047;3006.93893592447;3016.606742039879;2894.1559017416;2685.9056592163392;2272.1883220699797;2357.450306614244;2213.105341018056;2133.122847049832;2120.225016408833;2087.180474624864;1978.9165683457527;1828.3275476478616;1968.5137109293455;2022.9959511914535;1990.024585420524;2021.2952292008345;1981.8268091636173;2075.811737896785;1792.8541800525973;2020.3384734020874;2147.953544776026;2077.091185811741;2174.2761810706666;2486.1411067580398;2874.937330155731;2433.4610892736414;2734.062963447964;3218.0848846979493;2580.884587286167;3522.3277147848144;3616.7702568241043;3675.979131701329
3626.3738167453553;3392.2840865081994;3498.053803968079;3520.8717849091677;3224.3241080195116;3112.402167530419;2787.3464753017265;3266.6957259567484;3170.6212082549223;3406.936813226995;3632.7486597320144;3793.023258359746;3696.043589890956;3533.1234686521498;3315.5440402290856;3438.079916172563;3308.046774446461;3206.4513534777084;3102.882959165207;3056.810103609591;2917.300102186459;2755.258485759538;2716.837585641993;2596.634053933192;2391.7896728368446;2234.7335513761523;2102.8578236231638;1942.0208473863513;1788.4024749507248;1550.8461239752928;1388.562626876001;1021.6568459394975;1020.2177713392639;1012.8059432871178;1026.227856268676;1037.3149803404622;1049.3521177784323;1026.4570737323152;1031.9447468135209;1027.353268135692;1032.7303260417057;1028.9822241238435;1025.2259789149034;1025.9588628278839;1025.0467420902664;1024.1347035155522;1034.9738946300085;1020.1677731301484;1109.9785268343653;1083.0249457491805;1302.3782937043152;1407.1398701774629;1591.8163255350846;1745.430217256006;2076.827446000179;2149.2503437791415;2324.761229921151;2513.371652458982;2657.1418341337035;2758.7485880551653;2769.658207076806;2767.9871525138265;2863.5055413822843;3033.2666523281846;3075.8826421396857;3083.634311683712;2952.7158945121696;2755.5558166410106;3053.656584198678;3159.0187368715256;3291.6630204538137;3411.823554786373;2378.4577235816837;3356.8025028840025;3376.19063348846;3356.0426128943623;3062.122484760756;3267.855686170506;3261.7095911486126;3348.2736167123026;3491.3924080375905;3574.585030521061;3564.576250693411;3836.2191203332154;4171.882689007802;4847.564399995752;4451.431858171914;4700.072401326977;4928.959312168588;5031.5703606510615;5177.478328794963;4021.344189545171;5263.472986961888;5413.340126875833;5378.379440448336;4985.943729149245;5361.421656730599;5448.924176712793;5464.300840886366;5209.569347259681;5087.720158360156;3701.023463967062;4899.965278431639;4160.1987096112025;5181.916693308131;5195.2777865635235;5125.144973474911;4899.794871308273;4653.8580787792325;4232.44701831665;4066.508986752708;3709.306381941356;4559.2505384439755;4663.997710814783;4750.883039867755;4817.293050245324;4783.45678043125;4629.989614692617;4666.2079683464435;4536.122882390868;4345.568608688105;4444.859726609457;4412.919619029013;4352.0447805171225;4221.073011231747;3770.7699119887334;3850.9079122716544;3762.070898219448;3720.593860842782;3604.316922349201;3434.0766177910004;3284.1342724055;3116.9511442891558;2929.0008740945946;2772.551512547863;2609.792625355419;2526.559914247125;2390.5532784816946;2315.539144611353;2243.7962380984586;2202.3618855946966;2058.2999435300776;2053.007599216536;1928.3100110423734;1769.0383630783604;1901.4725646785719;2028.7429176396813;1900.5464010569676;2018.5348433946833;1772.1706826427026;2141.3510370543077;1925.6446393681845;2008.4116619463825;2236.628157692918;2456.0918152805884;2383.6806995594457;2854.0636870652775;3110.563522357295;2687.0938020119333;2956.651945133254;3698.0518303394115;2804.7464383207066;3833.570319192568;3916.516060598888
3081.6703549715917;3020.343978973679;2903.3668007626607;3101.0988331189124;3171.4803205910516;2601.943880392499;3022.1178875128203;2829.7991450168406;3055.0145602721545;3234.415670759104;3602.970941264019;3703.259713142155;3596.11590412905;3456.1501636963753;3299.362225222079;3076.688583514367;3233.4875486217156;3082.0904195018134;3013.3767504909006;2893.105708666701;2833.6689586974676;2792.795735495031;2676.516327113213;2597.4087614223267;2418.7332647171866;2069.9821012155694;2016.8992620325484;2001.4823181372858;1814.2289670263422;1600.2470786042322;1345.3711284018218;1017.4598372280038;1011.7753753699644;1014.5288835971733;1012.4996535546907;1028.8041335685703;1018.8341643164913;1038.4210928212478;1025.110900315165;1028.857398676571;1028.4987793571067;1023.2639856092519;1023.5902516591136;1021.8622261232099;1020.9719681092733;1021.6634073247606;1019.2468427410699;1076.601139851727;1015.1967434283029;1004.654280932979;1031.220591347584;1215.0800671070756;1321.6377775593987;1705.2500493323078;1772.0030888797128;2104.0679785517327;2231.954291304099;2310.5541668216806;2457.1980091317832;2561.2408212357072;2627.8143122786;2475.2704703116974;2705.394824874636;2848.4189856493444;2903.5031340539012;2827.0674360386943;2250.417145000681;2854.778916270778;2985.1129471960253;3103.777687331594;3162.2673757431935;2250.722309035435;3154.662941044849;3270.9749490730405;3217.8264130310768;3105.5055402807543;2925.3133873524;3072.909883527214;3096.1369458915337;3186.675134569488;3227.806693063984;3296.0667841815634;3372.447913699087;3649.0081931340287;4318.777705289385;3908.9797208448895;4185.755930987354;4450.120232791722;4771.1344654320965;4964.590647186134;3845.546585853003;5134.843747292529;5120.67401847532;5190.588815880381;5128.609361246168;4477.50552272252;5038.540767772525;5227.01209162801;5276.142679680277;5156.202549233498;4654.379564599187;3625.0841404880043;3686.9893571709003;4817.036483630231;4938.821548907737;5019.954190761935;4852.083791251322;4671.065336604612;4427.852858476459;4238.611596634961;3471.216148600684;4387.580906541723;4591.227144450215;4703.003237116074;4593.164873257174;4707.83460587391;4650.074597071587;4712.726945777464;4436.120757900404;4372.516282598883;4165.405014215421;4283.333291445271;4254.874976119974;4344.724838576709;4259.8238714408;3993.372809573543;3468.2363528342044;3654.5574622172203;3358.143546404143;3550.1876061888383;3292.421861232408;3097.439518890102;3089.5389883546954;2856.644797402611;2705.0643581017744;2666.7148449601777;2588.9636482222836;2349.296782553782;2348.239696641432;2252.403929604239;2176.847111976785;2136.912110438441;1972.5015298927801;2001.3085303718663;1864.362933203126;1741.432407072934;1854.5316262795131;1742.7739346785802;1763.959731178014;2007.5177244235865;1904.9643253945392;2278.6122207064195;2100.41415873324;2171.8700533350807;2322.252223787255;2759.533377563987;2650.889796683084;3073.7924097615755;3308.3279304073562;2977.7019640235453;3119.201580189522;4001.1867040161446;3036.2528436037232;4146.286862034958
2758.5404080408957;2520.50865608905;2768.113303970394;2805.165098082048;2359.692806391479;3098.60007900298;2613.6537952785698;2884.3579000522336;2851.969943017322;3167.8476892197664;3348.096983408925;3446.8313494847584;3507.9221637302667;3350.9551229782887;3191.5713621396567;3041.7467258057873;2848.5007109951216;3001.827114297677;2875.6676727474437;2760.2785680402;2677.079679679679;2630.7217260326756;2634.154662001152;2485.146318865723;2344.928991244897;2177.730899653348;1699.5797015287553;1746.2408541463942;1716.8177211264474;1511.9641043212405;1269.1503457480944;1010.2344497997306;1011.6577715260546;1009.9579125060523;1019.9885408421883;1012.061153209293;1020.0777687934501;1021.4637327718046;1025.2736630282247;1019.954217524386;1024.464772523771;1021.5582109353277;1016.200292346311;1017.2856329573642;1018.907935798663;1011.9639314490537;1047.845548006534;1008.3107079750007;1004.6047576686674;1011.8889873860167;1002.1170497690882;1001.2554740111823;1420.1603519607038;1373.1146038714746;1640.8250430158319;1858.309243993991;1952.0195465031702;2029.6705226265926;2269.641768548538;2452.8991313268566;2207.4845755531283;2516.630493624248;2605.989449534292;2710.025149865601;2668.4431736147194;1805.9511625667951;2787.0827102132594;2864.9336224313497;2847.8626420407204;2903.2488593649746;2133.0780359347923;2979.0671019224287;2961.6448492992545;3053.0326083093846;3009.903484763345;2829.0796587909695;2971.800126364166;2929.1070547126697;2897.1702171919183;2998.6949477815383;3082.3460452737577;3105.1146998421113;3248.8925403705257;3755.556783903235;3572.4768264741747;3717.3373977704046;4025.237030661506;4453.755480652399;4683.335884852366;3562.039357321132;4887.594624418902;5084.248813844575;4973.689628354665;4929.678297217419;4737.454541703746;4162.670903150429;4752.553238724204;4913.100085083384;5005.0223127138415;5104.898128427241;4689.198512757102;3535.5502433288525;4708.875097319864;4693.888463017263;4761.946974721352;4707.021694697962;4596.367729528554;4367.528268743166;4239.822697599477;3384.289395879799;4423.602379573444;4363.600150621984;4426.945333568707;4565.011572679079;4446.371027173134;4554.517347128009;4570.654495936575;4575.75587489421;4548.092278363842;4020.2014723873776;3809.633814499862;4287.982748316041;4260.273090179973;4027.1950610393937;4112.656621317066;3888.623125757513;3651.885627496705;3215.26843211436;3427.1300992749952;2865.3362779918502;3154.610889571775;2818.3409219560203;2705.594640132907;2678.659963044673;2459.305367914228;2419.690503008707;2359.127925645193;2366.6794129578725;2224.180800275499;2194.9902642602033;2185.4726306621283;2127.602046192464;2025.250587363314;1859.11863972319;2057.1031027938757;1888.9793339804864;1721.0666304772071;1998.5374399458901;1961.3015069384628;1963.4263536004864;2013.6694913690562;2016.681354006982;2405.7891055365676;2316.15596353553;2518.104839567122;2403.3204504470973;3035.059681984288;2886.335329910417;3231.772782417413;3534.09468432885;3250.9148188857994;3410.1883744680495;4258.566298878377;3402.28932993637
2532.201963841068;2459.8899508043664;2339.276871543661;2096.1988580070197;2852.740804073925;2333.2744283685065;2709.9630110573457;2604.3068712339896;2555.429165448532;2975.739204729774;3160.9781475848417;3224.5088412760847;3216.6518042190896;3119.280299787853;3125.3661591898485;2949.2815848706564;2774.6007710060535;2605.5598878203496;2816.2960041563797;2704.732358862167;2575.45960159554;2524.227174346261;2490.881678895215;2453.3142134629047;2208.538795814367;2075.5751453326798;1919.3045412028023;1376.0563563558512;1316.855569593979;1428.6170882831025;1109.3272089837828;1009.226989948093;1007.0784371152236;1016.2612737194304;1010.1354152291105;1013.1370529404535;1017.4678362921704;1009.5200583891778;1016.4776351534265;1024.1539056314969;1020.6572133291575;1013.8847624293617;1013.9725051721111;1013.4776741556439;1007.5797936004792;1025.647581980215;1002.5163647990321;995.9272046973188;1004.5260855103711;1000.222900539236;1008.72564826499;1154.6360705926145;1082.3205801049535;1341.8109077536774;1509.4299304534593;1595.170403790397;1732.2434610964356;1970.0436104231421;2187.5047997333045;1891.6022427545313;2391.631829665292;2427.829055882257;2522.166588210763;2491.890052393995;1584.960616237172;2747.81156187206;2751.709561491171;2855.671376138081;2766.957657647003;2018.3007241870014;2859.1979338978576;2851.063793368922;2900.729692961719;2888.332099527916;2686.9541475551446;2899.881106555343;2928.948381026034;2614.3206185204094;2827.0031406448984;2769.335130865786;2846.888649248575;3044.176033278494;3325.077234828687;3383.6479387899412;3375.3708353679845;3530.071737286588;4019.026986739677;4364.412364853253;3210.6127943043116;4502.7068257933515;4813.727050202293;4824.454965248522;4760.765759334994;4727.296602782846;4536.524252745561;4040.9968000092545;4443.386351170911;4741.604743973903;4854.666838689236;4964.313550385448;4892.879664270027;3417.836881528842;4534.479728763341;4722.450746514674;4442.796316789407;4541.497587793505;4094.1696923477816;4201.798993107446;3299.8129151877733;4362.395522385652;4401.669282283985;4260.9530310885;4430.808113362713;4442.129885295561;4289.110529532058;4540.482639864058;4476.077698318852;4510.9364029491335;4333.391960253653;4288.354835464677;3476.351211318793;4271.05733396822;4277.099397037384;4090.0931923533803;3760.803764403255;3776.604677448799;3641.6359543049734;3513.18191098911;3047.046692090244;3264.509222564229;2543.5509492598817;2517.5348039698342;2540.4372473449507;2403.5802031473772;2341.221541714844;2183.164867481782;2163.375318224012;2278.324402947924;2209.85202086032;2132.063936390133;2118.4741866076224;2050.0716348948795;2010.6954284864264;1996.5074731406398;1737.928394421912;2083.016841277606;1698.8449427581281;1824.1481995964282;2002.7901869771058;2098.591514965687;2134.9176974223924;2151.811356162794;2151.0524059822096;2540.2620031188067;2599.223417574765;2807.7595969530917;2481.8648893537397;3239.7606007520967;3177.5405430879396;3443.945532034438;3835.40155545226;3507.6382574157183;3795.4616766993236;4268.713449828052
2385.917799559738;2348.4018314693053;1823.5049537031168;2361.2522047265397;1956.728707025503;2517.5001443107244;2610.3996563064106;1965.0867680867373;2756.870649862333;2762.9475324701857;3055.577468266724;3076.584907084048;2883.7995468630656;2818.2366733690437;2953.1407016492735;2922.4421702223776;2724.400781417186;2483.9075422251985;2388.5164339124217;2646.2294390359407;2505.8185497239215;2501.9461814758592;2298.9861583291445;2261.603832098825;2139.8470334484523;1830.4429759272266;1677.3015318438647;1639.9847735221078;1019.5340902618755;1001.5843508909843;1015.864800860194;1005.7096048662756;1012.163028807282;1007.3491002043506;1009.8928790857217;1014.1403736769166;1010.2909480285662;1011.7672238010682;1008.0377280394241;1010.3594939294967;1017.6004296502106;1011.304223189878;1012.0514567285704;1009.4256738101021;1017.8843911239828;998.8008785677148;994.1265425464271;999.2864563470539;995.0657315428875;1000.5867048981595;998.2338611151818;1074.0868641368033;1244.3308790911651;1388.6661413116394;1413.7187078734592;1485.0136875149265;1681.8263105838037;2005.7472711053515;1511.090623889621;2123.742190652923;2213.539375505325;2433.4422185844774;2408.7236862532495;1401.1681677540937;2556.74014738258;2636.666600936573;2789.923250485494;2776.3408586082483;1897.24111256272;2687.975292857665;2717.9088183901454;2796.10353353037;2740.8651301735285;2401.1463972989372;2568.8744420464586;2856.9299541575706;2765.418909963673;2701.2537993347573;2241.092276385442;2400.712109915686;2722.7001836609893;3183.694025069843;3135.5061622998433;3145.483979578104;3022.8061227157837;3613.6281099655794;4014.783606821787;2868.1325002863236;4266.811450551271;4388.887319481448;4438.906176714994;4544.78031752766;4453.579650578547;4532.475986520738;4217.710880295061;3815.275284955575;4488.277286045506;4591.62808957884;4682.609298223848;4804.915331186026;4658.149832654206;3313.1938558257602;4535.98714998614;4431.074834528286;4370.311932898494;4056.5756303536614;4168.753915313186;3215.124155615759;4172.061124828646;4234.553324642831;3927.8794025227166;4328.653322697741;4325.23938233128;3932.854614272225;4410.5693031922;4475.311610407369;4440.151228605999;4484.767682207534;4420.114932602533;4050.4413039704054;3423.042740496918;3969.292726539233;4119.909939168405;4071.445625520058;3818.845797152671;3438.5640417325044;3398.9159396741293;3135.8144193427866;2815.9647642740515;2867.564239625754;2528.5858552900086;2495.344075607221;2373.218478295869;2264.385653403008;2196.5506648741016;2130.268859411219;2164.7324522790846;2157.6688611637805;2156.6829039889967;2115.464962051606;2033.934160685069;1889.0620132973045;2003.6891844080023;1645.1587444118231;1653.86162712833;1676.3779018356468;2056.4809265105137;1885.349448279232;2004.0727799379724;2077.405207578375;2145.6320201016338;2175.9591232430334;2160.608720498825;2291.5955147354493;2662.120782472444;2895.3481743347998;3053.4623508328245;2573.958862497941;3518.1013885042225;3397.980258792028;3797.81069272329;4117.227674326954;3775.6441792899336;4084.9295051036966
2169.973566023638;1595.0898088062208;2236.158832778516;1678.5222107451618;2171.9453359088297;2425.9768054057427;1449.5758633287128;2438.7324579332458;2536.725341710767;2811.172852336775;2667.8413427661376;2827.8403744552493;2680.7479508555048;2321.086527259194;2631.2303956048513;2786.7116844817733;2730.6144101577725;2562.8413418197874;2095.7285477344017;2177.027582354884;2410.5737009960044;2221.938573167707;2302.8576819235127;2005.1048353258298;1835.9969418417404;1726.6347526129325;1467.6393115490955;1298.2610725351678;1418.9621356821995;1004.3646623588638;1007.243993399497;1009.5038851281242;1004.6483979753766;1006.586423731515;1011.112650143813;1008.6960749481545;1009.1769250720008;1002.628076823944;1007.5060563303782;1006.1791909131884;1011.7670973777526;1012.6631263861846;1001.4600472722173;1013.3272986218453;998.796930775809;991.8591285368416;995.7328163720708;991.3250504543698;996.124415491835;993.695209508186;996.122362140813;1044.5393210930188;1174.5164786969985;1247.04179715075;1261.035026025625;1410.3758315944224;1704.1263168572245;1194.2156108919476;1973.819351629446;1963.5821115409358;2254.164292758483;2290.5408060462355;1254.4945514813835;2374.866429738799;2441.8337887841058;2508.375508347039;2597.582742411188;1780.9611904509043;2520.602130012959;2496.9246380350064;2596.2291429984402;2612.566637212914;2470.131778158769;1877.8815863746386;2682.92633907998;2667.9023764583503;2404.358512199117;2641.5283821452917;1908.908282419342;2191.6158339697436;2867.474036658396;2889.770221233985;2959.6520038132135;2516.8096734123787;3062.7582772949913;3514.670393339206;2601.830084375299;3817.676375524056;4069.511420523398;4239.930256733771;4281.691124667856;3999.0144130592284;4170.891726819384;4242.194508479994;4040.9509566548727;3550.1596231485287;4265.754400541768;4392.644316386943;4560.652901345184;4647.911000655868;4657.777737683877;3203.457268780829;4414.095752758942;4330.209601074783;3993.933057137476;4168.45675581377;3552.721918629139;2976.8179715859737;4076.0017872903513;3614.721379953107;4150.557444232556;4298.262008984029;3292.084807585796;4289.571546887524;4312.473369272426;4463.579925107026;4227.470711175583;4372.898942860149;4340.01049866677;4238.562456578287;4119.755523038857;3225.9710740400383;4058.6522460978126;3968.331884832923;3846.6815654697016;3685.6687219202427;3429.9145457861828;3408.6627277519096;3331.741404312082;2581.133488760061;2899.1060253094715;3004.843767889675;2809.449132389002;2692.6823519365576;2637.8677987261813;2222.6513575559698;1935.314779242207;2115.4143804386317;2059.2726846677947;2045.510622083259;2055.5943975107034;2015.5751101168312;1622.532038290868;1922.5450131887196;1915.8607683515643;1928.4952837220962;1983.7780964729754;2185.9249221932773;1994.2853081627504;2020.2867458203536;2141.913350478096;2185.78212453266;2312.8701788532003;2492.865838427913;2688.700034930495;2815.581149764282;3198.872704314975;3296.281440824025;2676.9561898755987;3761.8771143052286;3597.140278443441;4117.1205480830995;4356.579332799278;4035.086735624536
1448.3801308716584;1936.8892183342664;1465.8797067973055;1831.674501045572;2091.187392892855;1221.7942023478781;2358.752686328334;2166.0465371427604;2467.3775841815063;2620.238580972197;2706.4900900439075;2195.809285063912;2537.188676383296;1847.4931301675992;2323.839673188752;2485.128526352328;2595.2084145764325;2545.382809033605;2342.3310375421975;1691.0394312815265;1986.1361897083816;2145.22675223538;1882.084600726569;1912.3227879165788;1590.893671248079;1420.5105233041227;1406.7079905994256;1213.0004176068783;1157.6223533181505;1176.5970169774664;1006.2727003879713;1002.2182272801979;1003.6785699145889;1008.1842912374009;1006.0792909759984;1006.2915914561854;1000.3903563890076;1005.049277949207;1001.8791975066574;1001.6219452146156;1008.5819029330278;1001.38638952872;1008.2213909468337;996.7043290645934;991.3770431737707;995.298684040024;990.067281617165;993.2809035451614;990.7201595267375;992.9518897739554;990.1045505995344;993.3338876187822;983.4847048735924;987.7117354898432;1182.9884802985425;1433.5360086121136;982.5193408088912;1722.2854634855134;1727.3090672821568;2069.812183422991;2046.0542690510642;1162.9536149330993;2314.8401713456983;2324.0114566438674;2309.7654125943914;2273.7222123322213;1668.2806170991266;2338.0013006439126;2245.369933199186;2401.686559503017;2452.029952440255;2428.4621308945575;1447.0352615261932;2473.324603715451;2621.1547928651767;2625.505700052305;1866.7450957731648;2372.4034749821326;1723.7514183053095;2437.672855837813;2558.578536020435;2670.0416432618845;2130.6780500369755;2770.469045116936;3040.567476732141;2371.6731430144823;3281.685435283794;3481.4127886237106;3707.5293467035285;3900.672050922449;4101.8554435495735;3995.9644762421035;3393.2737656233226;3767.6819203428063;4021.646199330426;3269.5557206788294;3838.023085311663;4328.972008666467;4264.870377173245;4446.196791238352;4335.772949452921;3091.599919094119;4285.703345447109;4096.1519991753285;3957.5409913726285;3572.291158981427;3905.0329966629083;2870.3717864211753;3341.9919093674403;3818.1460448978046;4007.1421654079263;2974.297413854291;4152.012930384402;4190.52177949362;4227.390932070295;4262.704062907005;3910.3867350094347;4227.977788032558;4167.23890581486;4179.557030850599;4064.9038594550334;4031.9950312211317;3144.8019601655774;3749.3308856797507;3770.269589729391;3709.870212865629;3670.587482684388;3546.349140669066;3349.947210162882;3012.0878252639563;3169.144770499735;3263.440817471797;3040.397320904294;2886.39081183572;2690.2191529594534;2422.9458602983946;2055.3735154405927;1848.4276648125933;1970.9108977978235;2027.3715222893775;1964.1501094239857;2029.3000267969078;1599.6213054868917;1886.3131140686519;2032.3121990757131;2036.5170781669444;2011.380507214189;2025.799064913173;2255.533838992141;2012.432397326846;2102.571008274696;2215.5035071428815;2350.7379678479697;2567.2669000622586;2897.6268802937834;3091.866201255553;2991.676467598312;3448.085827390489;3472.883477887492;2774.57477029332;4025.9876463403684;3681.2838447808404;4352.923696501079;4427.962464133077
1691.7369644251512;1300.5404669420768;1430.4700362302542;1691.0312428218072;1159.1506869739246;2142.176569668132;2158.87856622167;1943.0718820315428;2292.6953634688502;2349.0271094591267;2464.422256883972;2419.7152963992635;1531.6554622526874;1658.5561350618;1856.189062705339;2295.285009403335;2426.5952677739983;2469.6940140068114;2270.0295701616665;2066.309189560891;1428.4279229492386;1781.183053253068;1892.0045533894677;1563.2990685209652;1553.1370545127688;1239.236492717952;1283.559453500703;1235.2203354953226;997.601366205497;1006.666841472404;1000.3473325325367;1001.1856018618578;1005.5522309978546;1003.7531600236516;1003.3906676473789;997.5761129956686;1002.8592568041313;999.7796106265882;996.8104407028304;998.0650287991039;1003.7118865472335;1005.1172176930104;997.0227334477399;993.9532885850181;995.0729684736439;987.737114034509;991.9579211867185;987.0748743401473;990.5255764881699;987.6394820578216;989.6701106374012;983.9139244093622;990.807474654227;978.2886054408414;1192.8961452162298;974.5619882389474;1389.416263694327;1422.383531106383;1771.3219243029798;1834.2759975668869;1118.3326404282907;2148.279525042402;2116.763361154843;2288.098777414802;2223.3307427221666;1562.9097956994374;2125.0167898220902;2126.8847726359004;2125.843105659363;2229.2418037259754;2282.770114323223;1370.20376654757;2188.268842695516;2478.869659793127;2489.555881265927;2284.4745971006246;2216.18826689383;1449.6115221987138;2234.550320670352;2175.0569835140564;2304.443429278525;1783.7071893369452;2435.4907371849345;2587.9999507109774;2140.3459029381634;2731.3138108494354;2893.119758241181;3101.5024558786713;3261.289368426809;3560.3878849256175;3746.754643090661;3645.3336386479;2858.231606402402;3781.255830345474;3826.4652892806366;2983.1507484166946;3868.478541131704;4056.31931453304;4110.626324181359;4087.357263713018;4147.610921787918;2980.740197135636;4077.7283458518555;3950.1431244128967;3665.8345821073076;3698.265960903545;3091.6378673955537;2757.434392860519;3496.6983931428836;3715.4341126833438;2972.2316151405153;3997.435899456427;4150.150446044887;4176.44612707339;4063.441510341608;4181.681663969999;3657.8325008467586;4042.0786840204987;3967.4872763029366;4125.260451307828;3925.77492714109;3909.8865937799196;3776.5182565359787;3027.1207622355;3733.9963601730065;3634.038498187568;3734.2860078838908;3694.7454407531536;3474.8356695714906;3316.9253101250583;3423.504836344386;3335.724589958499;3183.464576116156;2895.96258321655;2544.131715211122;2064.7739403884157;2312.977107090422;2015.6095590753212;1752.704251572789;1768.3450105750385;1982.5511537926113;1576.4231284133666;1944.0662390199464;1834.4184594562053;2030.5986407698642;2071.253271000715;2065.3758926924634;2017.2143396752808;2027.1526130779735;2326.2501738236792;2083.7483097075205;2234.2557277350866;2386.9779890855466;2618.3521650725693;2924.3784041406175;3280.972837609265;3427.5371376383096;3182.672283242919;3672.2358145128187;3703.6834543510736;3080.408703725469;4207.051510414702;3914.881321294312;4488.04105634748
1208.564174644839;1231.8618976299808;1100.5482141936163;1160.114101791905;1814.1977055065017;1850.3168570713592;1968.0683083219174;1547.641577552231;1881.5097152883304;2125.0837980188903;2196.0572624216115;2018.255336741393;2106.2761694126752;1254.4977961755744;1907.0421775433383;2064.865689931838;2216.2330766281425;2286.4058608257988;2291.8843984237515;1926.3606172833602;1827.2878706904798;1318.4086252444695;1580.1868404518377;1615.2695735056068;1340.3629270713263;1317.9671665900769;1074.7616692931315;1167.340975928103;1001.1556324839748;999.6530468872888;1001.8466236737049;1003.2337015383191;1001.6027851226636;1000.7165069515831;995.5545256889859;1000.8309481780934;998.1669374168268;995.573970402997;995.9045961317811;994.9147345777751;1000.121773034849;993.7884477912221;988.2956338614968;993.635635423987;990.085811744203;992.2583042077445;984.6242837955465;989.1061559350351;985.4370534670661;987.773676409041;984.1443748374331;986.7926365437211;979.1775878193143;984.7520325447535;975.6304456842918;1017.9309853786408;1124.7519225182764;1384.0190195362015;1479.2943151268992;1099.9778424242058;1800.5698169807806;1872.3890712729212;1941.2090790785614;2060.8978063740656;1459.79552140942;1877.819740022523;1954.2048104735768;1894.6920646903304;2006.0048027349894;2161.133825462545;1298.5036278003686;1859.0473012587477;2057.141531308011;2195.1354033045905;2150.760092945439;2043.549921962422;1355.841003528662;1808.9414528798557;1699.0563058623525;1995.8995175110754;1551.3708018467064;2092.410558331116;2150.13961771967;1941.188420618199;2300.06751761437;2352.330996972047;2565.920355757627;2550.7297896204495;3010.2521037007796;3290.6984782606874;3358.785982278778;2506.1091681297;3400.241046689099;3609.751243983968;3592.8764961223883;2775.9239592463587;3597.034237305226;3977.1386196404305;3865.013393256629;3789.1826972246895;3861.1103171650143;2872.80250881226;3842.3729393923545;3756.70148997122;3504.9599253985866;3400.367991243818;3277.493745521116;2638.4838068559507;3329.5095597984932;2863.6627791320666;3701.741963509053;3903.309629515969;4043.216832496342;4091.3287679678874;4029.2111373612247;4030.952102837848;3941.6033228101937;3314.8790824059984;3934.6188958063317;3882.152186650726;3783.504151364063;3663.4169347690517;3744.1238166138323;3572.3963539633046;2926.011586304369;3617.9616715542447;3727.6792939232105;3698.118100252575;3570.772960299399;3470.7071524159333;3357.4515051466183;3285.1946017463765;3119.8050982616237;2866.932085532298;2064.7109219055287;2480.376693928511;2376.1135098103364;2073.9849830379467;1867.3896336058547;1701.1304237173272;1567.146618390806;1997.777405647027;1897.8811676012592;2036.1786530517188;2031.4742496985177;2088.4547850142594;2112.910978852478;2116.5319076481187;2090.6068923130556;2078.2812586004798;2447.9359827813;2347.953168170287;2564.590625092063;2661.1072617432624;2938.7501334005296;3292.8348895863724;3567.573914817853;3698.8120780418844;3369.103339862048;3960.403833490876;4010.271518060878;3405.988875588813;3878.2823128283276;4132.354844705149
1071.0696230261492;1080.1853264052884;1159.358161891836;1324.8726440507035;1412.9751254223393;1694.294002751633;1752.3427111777373;1117.270802920063;1685.5632016639684;1733.7594851387498;1898.096193159845;1862.5961238390555;1248.4672157755554;1253.3162139806236;1230.4828497588583;1902.6228214999683;2078.3534308976564;2009.1243945644087;1967.0393646559187;1852.403797355917;1639.230222416792;1611.953890390529;1232.3875259478928;1422.534852143298;1373.7162008241398;1174.6346659200067;1070.4756534699563;999.3209042000512;999.5556698923647;997.7715284229125;1001.2174479935657;999.8198515745371;998.4868903907691;994.243188776099;998.8485989763085;996.5971837576135;993.3590988643696;994.5300770801882;993.1770299605669;996.0130821202993;991.0531235301282;986.3469064604596;990.4065131530756;984.9440587309846;990.4137815215217;987.3847657888082;989.5351805078712;982.5387154023151;986.4944859802445;982.8251199051833;984.7805166667313;979.309596019245;984.0057541539013;976.7229889697146;981.7051675100365;973.0592188919718;1023.7458908935268;1136.2385699209735;1079.9672554567405;1434.4502993559681;1572.9079133782016;1732.8909295975423;1778.806379841364;1363.609322943913;1495.1603358457232;1729.1886349818546;1780.2854946071411;1620.7954892366774;1830.5117388930585;1201.2217696014086;1527.444349921726;1756.9441583681732;1831.3847720272179;1782.8788579993197;1735.7486515229152;1286.2530079787675;1719.0936233053808;1567.3155109463896;1680.305997984487;1340.4519643305052;1709.5549369902137;1865.7658116199464;1765.2798313559479;1803.9455083498965;1902.9115156685402;2202.422486494543;2172.161232006824;2543.2514732821123;2767.589986514026;2869.4760182087043;2373.1065437991315;2937.5437431990636;3164.860927045828;3291.87312440719;3498.5929021198885;2575.8497864182796;3635.7312189417576;3764.7985748303367;3318.572692875628;3788.5172543174663;3746.4087909922314;2771.4398682338283;3667.966856663364;3622.9166651753744;3410.5505707324414;3311.0845302020393;2977.695759712979;2530.8392214507644;2642.8777262695426;3421.9226625617043;3604.152094620236;3710.384021621571;3841.1625178323734;3970.8912247305593;3895.0586384718476;3998.6557654158437;3726.7787259043457;3682.126135757771;3102.3746280605314;3697.3915403582546;3532.3117057961776;3503.904039086216;3383.5595836425978;2682.8521368179995;3629.0844506454982;3567.035354594131;3688.406998542903;3670.6166969949204;3630.2097875230515;3474.8141579620246;3400.4600688662226;2972.9715423780467;3005.439803454919;2155.1397852391788;2731.6352180589533;2491.8808132265153;2002.1111042512498;1934.8991446254263;1966.163074846138;1557.8217938218881;2012.1583629678098;1949.1327101428747;2027.8494686763947;1978.465731868731;2090.060211036644;2126.82071199375;2155.3027070417006;2178.8693023706114;2194.3690604466424;2186.5468458245846;2203.204171881944;2583.987600025181;2761.1445168886844;2957.8757741399563;2985.4257109791483;3250.4909409705247;3583.9463839073755;3774.419037895275;3895.382556948332;3570.525001536382;4155.248079708044;4225.908440004052;4179.320844487027;4151.090230684846
1067.7021947545973;1148.9158617558005;1053.1960680280004;1047.1003005805087;1278.6264393400925;1423.781989056204;1441.6449678484119;1034.8511059672119;1294.1222961583017;1373.489956477666;1577.4772168780069;1457.926738862112;1371.8924737957386;1046.932350005125;1458.9828862639174;1633.3586966548019;1817.822793000233;1774.6219981028662;1629.6486712958172;1478.0539219649995;1406.3346209058595;1456.3618992504362;1433.7342873550197;1170.1821594854;1261.407041607672;1154.7230736741926;1020.3328550066472;999.1910004152119;996.8759513377281;999.341975345405;998.5755138869672;996.55871701046;993.3712216314011;997.1455170379454;995.2235878020706;992.2632638717323;992.6688276404025;992.1103815366623;993.689912485771;986.1780558707105;989.1528647782216;982.6845364144756;981.1719419024098;987.2665047784067;982.0121499574411;987.5045116540323;984.7066423101242;987.0285779753854;980.7264272180382;983.3498437900803;978.8266289174103;982.6911851676168;976.557226857688;981.7446955209293;975.125119002666;979.483713610136;971.3037552830883;1052.4804941153288;1073.695254455612;1164.2685456910217;1327.6743741836167;1420.7647253231853;1285.8099892324576;1104.613425443693;1323.796515658249;1429.8633832226747;1528.275314945778;1461.9947416028826;1124.949787772111;1182.4036802616515;1364.5388389792288;1418.6377149371597;1504.4150684355009;1452.004107843603;1205.9264846135993;1499.3998778860587;1408.5894231528987;1382.4397989383;1130.699686861738;1384.746796801428;1319.3975830747786;1614.1749636039199;1356.6476387591724;1515.0878786137478;1828.3395564607772;1879.513978627494;2283.4203474394685;2442.8659432640657;2585.198819718102;2214.9248129762304;2550.00052031342;2687.9869913792477;2762.561644533242;3061.222004106427;3220.103189834414;2421.8243934392917;3432.33529276516;2762.3847703490105;3486.9426195626397;3646.4365497234617;3664.328297673574;2670.741607059616;3682.8930867869426;3579.411945445638;3448.756322316062;3060.1622805541206;2940.4460915695704;2421.8979232677707;3184.9043125752555;3393.822419828594;3413.49618642241;3483.4401702203036;3644.624521545849;3628.041116479922;3937.0074589130395;3962.0751276253864;3857.884507832559;3468.0364264353434;3647.2836400400597;2927.436297614309;3508.8774825859796;3459.1720263027223;2619.6232001213734;3520.4049625099256;3522.398380196189;3755.1985966261514;3784.224383965438;3697.70167214151;3626.152552997292;3532.5816431539483;3270.933362542653;3197.152743675472;2565.644811446123;2856.5418530103348;2780.61157117065;2503.7693067085006;2330.493852264863;2156.9015163818435;1917.3633265617318;2007.4544906232495;1532.2521455991587;1986.2336868766965;1700.7751959610396;1942.3039567046135;2025.3949287461533;2082.695911994518;2074.3284081029938;2117.4779615386537;2124.5993412253915;2119.657140452116;2176.885481387903;2323.301794264283;2700.7763514861686;3109.3037462629677;3312.336637772714;3332.6405250486346;3542.725291990441;3857.651069674304;4086.6822699010577;4213.981084443516;3805.4044023504243;4386.789993476956;4479.217182220413;4515.813015833188
1127.3986618160893;1050.7474577035578;1046.159633197709;1048.9868024247758;1042.370464006803;1055.5101157881054;1140.9237007655338;1036.9044784742673;1035.7034617867666;1043.1259058265832;1129.5638364424854;1179.9105474520074;1023.6970284774698;1087.9126235657122;1185.8745035586135;1479.2878343284929;1534.9809748821158;1381.2973499182872;1302.3580547837391;1205.9170836980315;1067.3423033015656;1167.8134789572232;1322.8016656599111;1264.9198326977871;1128.4647746790238;1131.5882504262622;998.4803994272374;996.1353803953966;997.9097489898913;997.6544325857676;995.0423316527231;993.144535771944;995.8580782189342;994.2767597403176;991.0970909171942;991.5225825767143;991.6578807211067;992.0953164043399;984.7023810195583;984.0814524735138;986.3156176184802;979.4128890467973;979.9130567802749;978.5544759942927;984.4002074181194;979.5997628317282;984.9128050661143;981.733997341852;984.7331127394818;979.0372520356955;979.6507908631875;976.9688298070246;980.4899588446428;974.7731861203392;979.608211000269;972.9929775952478;1028.884555368562;965.3520842961175;961.7602581226643;960.1906003654831;977.7253641373059;1195.6562998774593;1025.0837886482873;1079.4875901227597;1108.325825443138;1013.353122739712;1303.499758886685;1086.7262221252959;947.5141636448511;1143.8863642694396;1019.5002745369179;978.9688002293292;1156.1308913521557;1144.4733176171226;1080.3005721248228;1136.3718805926114;1240.7791234550677;995.4112883949156;1136.8690258872916;1113.320457209295;1443.251747462949;1148.9350558475676;1212.7910399865114;1451.7967022210187;1511.3698821501407;1913.214421428473;2075.2390634830595;2312.8562304334514;1977.8699513572092;2167.5908938399675;2120.4383390900616;2204.869972441847;2483.3985949785833;2712.1108210146726;2985.8545049210784;2276.3806340166625;2294.9302733937143;3182.6211219450684;3300.973445091777;3459.73791234643;3521.1036622340202;2568.40404541184;3479.1480989470233;3377.0420234475073;3230.827331592916;2953.4982004277585;2398.3774023645306;2310.959736256333;3151.251727106706;3135.713725094293;3191.1371836488893;3550.139684146677;3273.5466298750694;3828.807340969341;3992.8186778095746;4042.60763917383;3899.2962144497264;3606.7181550178125;3205.5526025108297;3572.0215831070905;2829.940772865282;2568.4874508431326;3336.24288538472;3422.795687511854;3628.1202462301667;3762.6900874620655;3756.6624165860826;3671.420378752275;3593.3304038741085;3527.8846914319106;3383.0708354079356;3181.403826983315;3071.8043117831553;3044.9077845862826;2903.306731387473;2691.377668110787;2465.5512125205364;2341.1740690643933;2158.0681888353643;1941.2252719381727;1990.797060754514;1522.8933710939436;1982.6790641330067;1955.6257815109425;2037.4777147407654;2011.8020154613123;2069.451872657411;2031.433646785847;2085.7366174692174;2133.213242122902;2201.4530972741154;2476.8308018404045;2849.9642833452685;2840.240286855686;3377.212403971253;3576.013795957065;3654.330449167375;3867.8934185161047;4153.775544826451;4487.530226171095;4552.274347868386;4038.6611940028256;4596.447527297783;4749.622637885061
1052.8296694861347;1045.5658476256767;1049.5704188354302;1041.7294440991927;1041.5837241280315;1036.4152603542489;1037.5347774967213;1035.3747895188408;1032.4334123750873;1027.7092529463748;1028.3120121769616;1023.4511686190112;1017.2086965995691;1040.937216560741;1042.0784834331089;1198.2042725486244;1237.266409422738;1150.1824996736937;1020.069607044165;1003.1673020217199;1004.4286825905147;1068.4328734249939;1148.768572897175;1176.387220751113;1093.164800070932;1098.7555524845443;1025.2684057082956;997.0213095204249;996.8394022204834;993.7250282878135;992.5931791258568;994.7223946160102;993.1156423043476;990.643565579991;990.9044947142274;990.9136541844578;990.4085428255057;985.6741720291311;981.7678459290191;983.0994825945163;983.8856096252835;977.4919660021565;979.2580483826796;978.0700774165239;976.0897349879256;981.7309951331117;977.7153599969911;982.2595899107673;978.9423087330997;982.3998922672695;977.3026023229727;977.1889993716991;974.0579646006408;978.5570460489989;973.3336362251098;998.9715556176297;967.51427359321;963.0689197093725;964.9031358007992;959.7596846437086;1120.7242528366005;956.3438265339414;988.4077607926911;1056.9830620013836;949.563033262978;946.7457011304145;1035.3204305130726;948.1288308723465;946.3554381961426;945.3266723087995;946.2835151145132;944.6579528614129;1089.66605223962;944.0414348361273;943.3338205174255;967.8286512257578;949.1215015099247;942.0165661475794;970.7285109209361;1282.1844726114077;967.7497018716167;1032.2083987431092;1126.333384836429;1187.3638498228256;1474.6070611210562;1704.307528211565;2059.57693304999;1697.1114044169744;2046.5425420038005;1871.7058353100633;1860.098613236386;1913.393949313825;2105.8301995674424;2425.2851340600023;2587.9565145714664;2146.6627398567166;2756.325369903229;2807.132993704606;3010.9913981705954;3213.7961381171494;3295.677731129985;2464.0712316223257;3264.3857311501247;3148.4308224643614;2807.8102387639997;2874.2603459891566;2030.9366159218175;2826.6566985036766;2787.0773731430822;2829.4732361893753;3268.441139130931;2759.1874498717184;3677.3979225134767;3781.1682091699836;3874.7006957763647;3897.6184142708867;3684.4910975112502;3533.9189549473444;3588.6632670828626;2700.1557385535903;2491.324920984636;3250.969491505894;3349.74869501641;3375.263157277495;3547.8212548877805;3628.780665200879;3578.119329897381;3692.316272186366;3672.3620617109405;3346.4918313418743;3337.0896075594005;3146.2936475251486;3107.1434389175706;3045.3091452194553;2950.183414429453;2750.806704581622;2484.8415443342687;2430.5915696145344;2211.3500806194174;1896.7125602266638;1497.0681389461583;1990.867227785804;1916.2044236376805;1983.047048246348;1994.0540896407;2044.4169340388867;2005.437196833629;2082.853762198422;2096.401758915383;2171.9024191698795;2242.1952316851816;2492.4606897681965;2852.4903378711438;3161.5790276728626;2983.864995264225;3690.644311599856;3890.340508321656;4007.534964844745;4221.603655756664;4447.716588294434;4715.703405523542;4796.63481990913;4286.088033230797;4907.768858812091
