8692.024674668675;8772.317391371475;8751.20712466248;8768.088362689807;8760.59804798066;8756.704646407343;8729.6801296862;8678.365243937791;8691.832148953908;8770.461060923339;8792.676873433593;8844.892482085692;8608.293862924067;8843.9620973483;8813.358245363164;8902.725521882207;8960.262344083585;8986.910846375176;9102.644580921391;9229.874095659958;9284.50740161804;9464.861024479895;9386.248637842189;9654.57908919382;9703.994365697523;9818.504115503525;9956.70404535544;10104.411063887663;10210.21762555596;10400.737132035112;10635.753579595297;10630.035295723203;10864.031290380128;10823.015018468708;10992.844268913803;11202.787173867888;11353.869813524641;11603.885244120673;11574.045957391907;11673.96080066101;11856.279851452684;12018.375851667875;12660.13360049127;12723.950639713225;13198.50329665669;13489.259004290587;13463.419599297154;13478.476359289809;13574.731339053738;13699.066696407252;13697.948955569584;13481.448324767232;13319.710715835961;13139.590117288652;12432.749228615667;12895.960359629684;12730.417048774496;13139.321761598792;13409.899316540635;13235.39359572142;13150.536368440542;13227.773611526802;13096.771663737974;12985.395650665785;12532.565408531766;12190.97170352751;12143.715369769841;11595.375637710506;11681.938113082822;11305.523863718801;11172.315090216129;10948.834057555981;10680.540624670717;10547.178756486126;10629.607399990604;10289.430651500377;10161.739060324406;10261.487259337955;10044.757405546883;9980.998775846194;9775.0152148095;9854.126238773297;9699.348257389574;9695.066641697464;9695.61896386059;9693.595216416456;9694.391112273137;9694.155872075073;9694.715480180588;9692.841576006103;9694.176862402583;9693.156391838209;9694.214800459547;9694.8179414207;9693.589207711171;9693.368452547762;9692.950925588746;9693.056364324628;9693.308958000718;9693.555641760511;9692.79988785979;9693.464507567718;9693.508221314194;9692.315824522739;9692.010747686374;9692.120934407321;9692.045814900051;9692.182242320989;9692.763711152005;9692.272916396221;9706.213783698546;9913.617230597374;9967.792442641934;10241.681452294288;10230.585844982306;9976.181889598392;10179.089473438511;10367.982925177203;10279.194762443058;10249.654660110577;10149.255907704392;10143.764736917394;10168.135768246004;10265.292190095923;10369.72433240887;10484.730415916994;10678.66242414241;10920.701968062654;11031.927952847436;11099.692838854364;11410.938439036;11572.614430762045;11912.645961771737;12214.642784742227;12313.31531568415;12540.118793091257;12716.594767873466;12968.844994092244;13130.729928574106;13086.694360308364;13096.58580393055;12875.837544306632;12578.4279156308;12851.150989977043;12632.630358833048;12160.012947726362;12136.78457887828;11608.655338225613;11592.285618293947;11322.938345326384;10757.264376651194;10600.235763272853;10491.52399373988;10503.694395769002;9786.609831833008;10149.479014566285;9592.730677535972;9444.567474251347;9306.05457730469;8972.981831651403;8845.16822908958;8578.779090363874;8308.001064902335
8507.198722009001;8671.352088446307;8755.68895261746;8655.108701199984;8711.862226610876;8708.199328321894;8816.850097777598;8803.875826255426;8756.642962833237;8816.28129231761;8910.063346833984;8838.154848315247;8749.6190205809;8702.717349515646;8782.761959800071;8854.16789971045;8942.52014022453;9093.118784992115;9139.825661434574;9196.643454717123;9316.788491781372;9284.199213824446;9608.774506317437;9524.538774368164;9765.429589294563;9853.349623741567;9998.22457800961;10102.976557932157;10282.000456621045;10513.190680344567;10561.763801206209;10798.845703467425;10844.029824809695;11045.822957913544;11055.945862116307;11164.554184245975;11490.258362825545;11454.94171200916;11520.048406495484;11557.484159690543;11705.259927521733;12323.929833661612;12258.540715299678;12949.311179807177;13213.468827573372;13268.925685059152;13306.422663982856;13382.053822676637;13523.04268177209;13692.294730981492;13717.911454581164;13603.846705013308;13475.172498888136;13256.172479727556;12949.748340747996;12297.720529731592;12750.422505340732;12866.028428704616;13171.986729674569;13083.254364056622;13044.645412650174;12865.8808588555;12788.681214375723;12948.610623126817;12495.745520512839;12156.58235425438;11781.388110624124;11781.632854129264;11379.585152039454;11212.414160156073;11077.018592622135;10848.11349218191;10837.19668930769;10567.399548621339;10440.903118719318;10425.890493269912;10259.330693093816;10118.037160273638;10172.784962515416;9920.392795416989;9833.25526513925;9711.26866556895;9696.071134704456;9702.394198272148;9694.807998391818;9693.41696157997;9693.733915297555;9694.353017812198;9694.060698030833;9694.478415896949;9693.180073478688;9693.06145099665;9693.118142559877;9693.299842425953;9693.4008650414;9693.309624497044;9693.325969926635;9693.646267383978;9694.722802828273;9693.734650765226;9693.600820202053;9694.015949565084;9692.312789819753;9692.416028780772;9692.002405921165;9693.702759418018;9692.334196192474;9692.08938763538;9691.464544345643;9693.182181361204;9692.339499357979;9734.457784954302;9963.344963797153;10292.661045484994;10384.987416321328;10144.51610094825;10226.543019858036;10405.308012302055;10521.336056115786;10400.9759259836;10215.668245886598;10196.819370256697;10247.571608723712;10285.224408748752;10447.2866993711;10651.886862538486;10782.081435828251;10965.379133506609;11155.141204396848;11347.66603233006;11517.223757584772;11828.800743673419;12106.927079049085;12371.112740363074;12613.942413667031;12736.668578385572;12876.254111921182;13094.28875405563;13160.098394852546;13091.260330879573;12973.616808562765;12835.342453134981;12902.791906622235;12254.692218904642;12467.774908804575;12192.080876157546;11747.457636783696;11701.945652517708;11252.773658312399;11174.540753119938;10868.09529768059;10405.735941769806;10240.033174684242;10133.827322273002;10148.004842739556;9405.310066120528;9786.141570233802;9200.612731640758;9011.924367790602;8866.81500126881;8634.27631977657;8473.505343055676;8282.878088782905
8141.717527669186;8255.065223143349;8745.313488361306;8465.491717000004;8522.809005795712;8572.780842698823;8629.120328287292;8728.383381962092;8782.531068090062;8817.209398719191;8909.740105304278;9007.469084117594;8864.36034740871;8843.777788459116;8859.189755757456;8931.313615393381;9031.35685160364;9072.020712430069;9112.317031049326;9092.203729215686;9182.427527527481;9450.264189546062;9364.14352162824;9551.84152682852;9624.505017330623;9901.189850617131;10139.216921256608;10241.216746367325;10435.33802141271;10438.443352480113;10580.775045748738;10749.756105810138;11079.354958440326;11199.466043558768;11280.235599931126;11375.828602192389;11364.194925317574;11456.650566893084;11410.207800583954;11500.392213714225;11761.323421007142;11819.53397815313;12405.516825043836;12690.876705239923;12803.801789578803;12824.362099604707;13171.749780018483;13431.276607020034;13602.037254539082;13614.38728650087;13610.984633527354;13546.162628595554;13361.449819847261;13187.976109452196;13162.1951925205;12990.921753570958;12155.624875315134;12843.149540796501;12780.323146320807;12813.327594309874;12926.920381106363;12745.828114220167;12483.560209173302;12357.093060098669;12435.581357295723;12016.53182364683;11680.654996025041;11420.852378938784;11376.121227721633;11189.051138561663;10911.794496483359;10802.721339879;10671.216217033245;10748.72858101807;10524.252780065293;10408.690176222444;10326.463822750731;10298.26124243993;9971.08099031348;10028.726646826693;9762.519182038719;9756.144751426946;9716.187094657947;9695.395786372046;9693.955702616087;9694.452608075357;9694.69094223811;9694.642102780508;9693.633866707962;9693.505844685882;9693.408820397712;9694.562339193853;9695.348212661276;9694.761572739422;9693.27126088447;9693.392807248914;9694.786309670024;9694.535988716132;9693.220710517318;9694.525899978893;9694.13635590877;9692.932768242616;9692.607245403786;9692.050358739354;9692.740821394138;9692.236080008399;9692.44324754988;9692.98073580672;9692.300009951749;9691.890733924374;9836.927418382125;9975.387928520333;9795.488611907695;10403.218611761073;10300.478159742455;10347.914210623301;10365.0051680465;10432.02317907101;10534.266698249161;10375.7867166277;10313.651665448884;10246.598550342107;10298.043229682498;10446.048698626746;10551.154543392062;10670.45879573571;10934.963255506926;11125.273771115375;11279.07711515867;11416.510796305203;11633.75756135389;11959.026136981272;12220.327561085593;12485.878052207816;12649.97042528338;12890.339760436738;13024.17344587624;13071.287144926555;13014.428237764412;12844.433713159164;12837.892330703646;12728.288379622492;12592.197198147594;12598.967291578661;11868.315860413084;11900.026174254668;11686.2218278059;11320.282960118358;11410.510638763688;10827.53538308245;10642.144768655824;10545.685391861818;10045.109190100713;9890.787682498954;9780.337894395605;9680.695293574438;9046.493604584768;9164.05031981986;8849.288879921867;8638.979931063088;8400.091090889324;8319.80797620293;8132.976194244294
8588.335594985532;8541.453938468632;8366.761469730802;8593.348948702322;8681.531718572329;8629.947159236348;8715.019486244844;8685.22974576916;8736.026285720414;8849.857407703985;8932.257385064364;8988.2876296309;8952.217806117846;8957.432585897666;8930.954759116645;8975.643623200522;8984.476771608755;9019.490095270787;8998.232642813276;9083.640933549228;9162.043076882215;9232.063112812732;9327.592201296411;9463.175356566524;9756.018362814422;9950.328543669839;10189.893641909868;10271.24259227611;10320.96676945758;10553.205362096964;10593.269997209085;10770.145427139476;11001.432308380969;11226.986417545704;11297.908861387165;11354.567666908424;11374.592106886594;11316.606418926294;11329.211015152425;11495.730609241717;11546.995415023652;11816.883493512953;12187.62975901815;12362.355532595659;12469.050800277157;13168.377644942;13274.998644431627;13329.462660771333;13437.786923345528;13484.898772903445;13438.413863019981;13427.410591808355;13299.631801613097;13121.719501268879;13276.203537343561;13003.420735843436;12860.459922769249;12028.705122524432;12764.743822010169;12532.093755599824;12659.26057890625;12644.148312149999;12480.890863051736;12124.864116262259;11933.181097987406;11844.33924687537;11507.021731523673;11321.182140784553;11089.535369313442;10947.327678447466;11026.509539548308;10711.274203134268;10638.07631637085;10650.25884065618;10647.647534598658;10499.592925217428;10330.83064884957;10194.746586506379;10111.356571466498;9861.650990453032;9983.403878607638;9741.309589239376;9745.591502726518;9700.160891831718;9694.678113342587;9693.876632765969;9694.349094285713;9694.806462335007;9693.323221621617;9695.465977175183;9693.286736304617;9693.647789294504;9693.272386707406;9693.259295539698;9693.243232609955;9693.42092470398;9695.209711976593;9693.861816225108;9695.718625015455;9693.907402826164;9693.151912130703;9695.044204888214;9692.78136614658;9692.328647931085;9692.060836742476;9694.338261060424;9692.207992949716;9692.84433375347;9780.287757408936;9806.13365526263;9933.883386121088;10156.719000178331;10199.257948398037;9908.615039053868;10610.12633970538;10457.65759437827;10451.401618057913;10589.743590190734;10495.031392612105;10564.192742144172;10363.401257442292;10297.296014577325;10350.009924567075;10428.660230578542;10742.409186248817;10845.697891725566;10910.876224592146;11184.100444317472;11462.803907057987;11627.072258980108;11700.222458010976;12147.92280596872;12399.23352600816;12653.596092912772;12805.070338607471;12887.373087904758;12984.577545699482;12962.4217997624;12792.494626594329;12562.099750975554;12492.328480516418;12429.071394101666;12484.7940107149;12135.670238493138;12042.869369260643;11480.823590462718;11460.266935188603;11196.32084211742;10967.298851026171;10944.597363418485;10471.62436493404;10273.91017103913;10136.862406758577;9691.246367968535;9529.435539058199;9365.945378678476;9142.246869088198;8671.929632879826;8596.383891763318;8604.7906113744;8384.732125623184;8130.003775112654;8048.604485363548
8586.421032656392;8608.914614437388;8651.541434539646;8528.682971029382;8650.972239450195;8736.54905204154;8764.793432291975;8844.549086010527;8884.688153377658;8781.744632531245;8846.079970027284;8937.999376337375;8972.41997419998;8929.713182975607;8944.132097685022;8922.14485721385;8958.14322830721;8879.556656309876;8986.619357949381;8992.158403123285;9093.824331602165;9154.156874793542;9373.712385428622;9669.491377368871;9831.454602108824;10028.765463842283;10018.21886660027;10207.898948521713;10410.930330035979;10448.943556737875;10811.306208955455;10983.043769552449;11075.119084810995;11057.720539630624;11124.20566793134;11200.553868585728;11300.591343906584;11170.348715904049;11253.203528951293;11321.988261448252;11520.85155932316;11737.049494951436;11853.755235942295;12157.028568670103;12583.328498556119;12962.709846912581;13151.860170599455;13311.88972566645;13222.650924341015;13383.011579957558;13375.22255517336;13165.96320957581;13129.299837701725;12997.051016849007;13022.747423503548;12983.893242430197;12887.079888505785;12802.81413942324;11899.112739589458;12534.256962602005;12403.014755326058;12453.024820728639;12289.312871775415;12150.188582281888;11777.033956402829;11513.732988447708;11397.804604920068;11099.045086995291;11000.869036542757;10905.348125409284;10735.36867091648;10856.22236367342;10550.716752110551;10577.477662318171;10555.942665684142;10523.675500139827;10420.924107757583;10192.311863570278;10028.919590434438;9915.740458676642;9844.162156391063;9985.719259456208;9735.87890815167;9696.449872813548;9697.940015001703;9694.691269287407;9693.36028485481;9694.269287913492;9694.091760995758;9693.251346353085;9693.820456652069;9693.137241507284;9693.488166141775;9695.560308113898;9693.296054878858;9694.429694195125;9694.032352826693;9693.683967728855;9693.995720315728;9693.727560738436;9693.25751366236;9693.201094526255;9697.095962978761;9692.159389535831;9693.316651594483;9691.952411036676;9693.543743490358;9693.059176225972;9933.038282847101;10014.82167103366;10055.689741234986;10233.911505193017;10379.447513523784;10610.490513983932;10084.462882764165;10539.835538336534;10668.62509161609;10620.942665626771;10682.119558571656;10546.979212297305;10497.547736786251;10359.736099852813;10394.739004280913;10498.643442225195;10702.783832300833;11070.001424810387;11195.909039675404;11274.193241357254;11543.118401125888;11795.260237692139;11951.442977671937;12035.116828273127;12421.568650677164;12541.23820699676;12700.59588129384;12690.212190937174;12778.551115623846;12785.442813737063;12738.574932246112;12450.324601933939;12282.477309875645;12030.312793861747;12335.429812651695;12039.244439397778;11726.529645797727;11605.27718988634;11145.553552095807;10949.030428307382;10797.998675069153;10591.465550286404;10507.778749675836;10118.997720305404;9825.12959251925;9643.418496369548;9340.074252207865;9147.445782210216;8919.736052367542;8745.327420109359;8276.524902210793;8274.913005228613;8362.325076170087;8168.026125175816;7870.391379020205
8387.233787249905;8705.065015988348;8634.767507120148;8641.680551271384;8753.211426635455;8825.542529012117;8833.659141407978;8943.069233826714;8925.51958948014;8813.33819947232;8868.814095061782;8868.832279843045;8892.643350225026;8884.684034699538;8836.458691660242;8876.6129825631;8799.796165800777;8890.866913542639;8885.358109936518;9023.840933608677;9051.904299195725;9242.288586670493;9487.26113786046;9766.998819621607;9835.643240167516;9832.230990492088;10113.711825850234;10256.817954914404;10262.307086360226;10522.142802253842;10869.696721910688;10935.417562242357;10771.783676470019;10902.615867171357;11057.572363335697;11241.24063917551;11083.911141528286;11211.727818167688;10999.393910175771;11336.350797544925;11467.220030685854;11567.982880993059;11900.695732009095;12239.820835150753;12544.841457333361;12810.787582815363;13048.372571746942;12940.969991819828;13425.895360138133;13409.252378145007;13278.866962444172;13130.27735813694;12905.684892901205;12881.128996806921;12957.297021894414;12858.11821220981;12761.62566227165;12696.26097132792;12458.044876428561;11766.950327283914;12308.300263048171;12165.799201554892;12123.23528247742;11980.181221413484;11755.233375991345;11498.278374890258;11211.236956022465;11023.123687846648;10916.728508346256;10826.868417085007;10818.654908504486;10610.364106481746;10731.402291877068;10409.764122703233;10506.613895866201;10392.232981849287;10365.729470028946;10181.181318773;10131.446512028047;9963.924012606363;9998.646925821235;9912.299765020536;9800.335385353937;9694.559036094055;9697.29729913376;9698.247606051755;9694.621113051318;9693.36028485481;9694.349386303835;9694.260978358441;9693.241087942242;9693.84523483624;9693.285956078384;9693.50393172153;9693.196964313353;9694.517993221478;9693.761328361426;9694.871295422618;9693.45577996632;9693.28012567792;9693.724660105516;9693.022079996947;9692.825863710736;9696.48038227539;9693.268057682333;9692.454080230273;9693.753749172596;9778.507501068118;9817.927915263761;10134.483520801106;10206.535926827546;10387.469063494944;10561.637988117462;10593.89361939043;10672.188770104978;10282.6148496278;10607.638618858487;10740.270488866157;10687.673553082102;10666.630470000331;10449.46326755601;10407.212298862374;10498.335567413538;10766.317850889478;10893.943139027095;11015.578744384933;11408.860593004018;11410.580090191324;11517.042126365555;11892.099519908283;12148.774607537965;12244.833830017462;12252.545135452601;12500.902563205298;12558.586263913014;12604.143850441851;12750.200320032869;12764.843381763229;12526.971579089659;12398.07196946082;12112.761519481199;12001.275937155318;11713.804843068283;11865.46338160069;11539.627381853956;11326.101959732448;11124.814709643597;10813.921472660793;10591.383745836076;10419.302395480208;10156.408056649438;10040.814068399635;9684.608954822925;9432.606235351988;9196.92544686922;9008.156214438939;8827.402051602006;8525.52419269129;8249.85915536029;7804.235808678556;8079.006747627965;8055.636557098945;7976.170011336185
8559.214672634938;8505.871973336973;8668.529237226481;8728.323377619792;8784.811236622962;8946.971377223283;8920.311901173784;8968.557867262709;8892.23542258039;8863.194373333;8841.957634403585;8773.476993235683;8876.781065995936;8756.702481311262;8842.342099699876;8721.025560454142;8794.59606635712;8813.262444503955;8962.643787500041;8957.975055457617;9097.370174012183;9432.22432301718;9569.293737052492;9573.217893206114;9670.433362098705;10015.468102909435;10058.771547017874;10018.957163601197;10186.052942476894;10589.05249135433;10832.615935835216;10454.649920883858;10683.334776322241;10927.41042329419;11060.300064325216;11012.123596212903;11035.438628359097;10773.40908196046;11196.713830889308;11218.055310411535;11408.516690518478;11673.249649504938;11929.622315007771;12172.813589938625;12301.257390795286;12603.254066575453;12657.028031423837;13134.267068946625;13334.42880482678;13328.122916706841;13228.607848723306;12930.530064108076;12972.635351425168;12735.067254199748;12793.753625799447;12818.58440898997;12650.043194227637;12606.026514710822;12587.909814297676;12325.355721251064;11633.36370911571;12427.673376903724;12095.147062282831;11820.386879426958;11598.711279963714;11389.615126436758;11214.879347032787;11013.61618808873;10880.018903783755;10808.851257789112;10726.91696682066;10702.483712657522;10511.762766392283;10600.03320112406;10269.690229138785;10344.577543529133;10255.146987919969;10287.1814396941;10121.290668153124;10085.736930730753;10072.330194687263;10006.866980568295;9898.108891468019;9716.461160559018;9696.125880595206;9696.25740348464;9697.3232749509;9694.468466118891;9693.595591355643;9694.797154396114;9694.61900529934;9693.627324914876;9693.799642871716;9693.17918196541;9694.79843353319;9693.222267601042;9694.259645289643;9694.118376896884;9694.494398175273;9693.340765243083;9694.299845889378;9693.239163816477;9694.102879624053;9694.19403825597;9697.471842751293;9692.869241442499;9693.420973729535;9857.469346427704;10027.522856860975;10008.428335194589;10287.954016016909;10512.58038274079;10804.788782832231;10864.28278031134;10748.632090004237;10545.113261418348;10524.542115662443;10772.137084952039;10784.169307322609;10619.906142871769;10561.366320050576;10473.264794275772;10573.238193028297;10788.687079115214;11187.404669844454;11232.93620356185;11321.155631236095;11659.909628717494;11643.55809225974;11781.416549350899;12020.874836112678;12298.364031546189;12521.57774046428;12566.845564956511;12417.95251009753;12493.768003323847;12707.58605644045;12649.573159468677;12551.712055130327;12238.213892504664;11957.36433750515;11797.582122826254;11628.82438831533;11372.408103470603;11278.77579838166;11025.15079036128;10954.887731736064;10710.797123647546;10415.432274890267;10286.626274721923;10040.457924633723;9718.279961913639;9580.336662958809;9345.242243855766;9026.873619013404;8860.069612559775;8726.526695383422;8616.036205457694;8202.683982185023;8128.080294119335;7427.615402057289;7904.303032739842;7866.113591096534
8413.68563773446;8655.999446510963;8711.09910659596;8774.014779325837;8852.638070356425;8962.142216351047;8944.137407719627;8948.594506797035;8912.342918896302;8910.439882832809;8828.943419040756;8701.576717663087;8696.916182353176;8765.149400962338;8644.896505397384;8708.543197324863;8749.202784089422;8901.711030463728;8890.894718220927;8928.191078518365;9159.471552461167;9373.747986894108;9330.877349058646;9495.975968050097;9807.551420398628;9841.34099402136;9748.235465231588;10009.679780357965;10347.117860651317;10513.314898433928;10203.14292584379;10899.08325834688;10893.131258754973;11073.363230024086;11062.14278476706;10743.118579705599;10546.023809299797;11076.3180077037;11057.145583202404;11309.210737414935;11502.496916482429;11630.585400720778;11765.918372818644;12032.091475024343;12223.278895835236;12432.69568394285;12800.595549245543;13000.744648929289;13075.890143417557;13235.895254627736;13118.970257196132;12950.977828809351;12817.079856423079;12796.94845709272;12556.267711417291;12670.893460640837;12593.302221469137;12484.74689149025;12373.782287780556;12447.753400675807;12133.545936295159;11486.862395285527;12071.120556715767;11795.787778219976;11670.9208615971;11669.932837576234;11473.010852329175;11111.37435107055;10804.572597300834;10722.335946388426;10590.785298096907;10593.490632822846;10587.708910328336;10379.574187360595;10461.152335776162;10150.285270780234;10201.834792113299;10209.236943078591;10220.178483711512;10195.218543421768;10142.890140053041;10011.28110034942;9866.246351827322;9711.434996121097;9695.48808316301;9696.216105783871;9695.394904450684;9696.7953260502;9694.868931660192;9694.992228622355;9695.028098298462;9694.70809400974;9693.835092255038;9694.08011913237;9693.663613296107;9694.012408528513;9694.254463625766;9694.336842743975;9693.588278218504;9693.634341375531;9693.515042929674;9693.532209035704;9694.147866975421;9694.088337218716;9692.704754760634;9699.372985264938;9788.812104215438;9758.368793257869;10044.817043103965;10284.846886957319;10238.384194059006;10753.128596083097;10910.269497628353;10985.530779922174;10710.612212883992;10820.477763051666;10723.181078373735;10776.66844828525;10839.671843461656;10717.199595267342;10606.423488859687;10579.540823537714;10679.192376789557;10953.930970854315;11053.675530287164;11320.099469006258;11565.957942257883;11693.592374079239;11817.132378688824;11908.954119650221;12183.212944583753;12423.375931875129;12532.131599364318;12473.361757054012;12322.743326694734;12554.950574052647;12623.880292423935;12500.596470491037;12427.625701426117;12306.654587085275;11920.821276074817;11563.166222696058;11451.130536486751;11329.214463381319;11023.046561363142;10889.231366669763;10737.90678995613;10703.873254719503;10427.598407806323;10135.089086290747;9915.464688954453;9664.603915603304;9380.315169010562;9148.994991718795;9056.742896784308;8772.635906383744;8592.228762379906;8488.33945659699;8469.35818563329;7838.0551324840535;8051.751851552132;7011.791475228773;7660.6470581681215
8547.791904227863;8721.652499126762;8843.873546243965;8888.00889655048;8933.157388856445;8888.096675116627;8921.370063846149;8854.844131278409;8937.482514691823;8812.32276920616;8796.533102278605;8651.563806132148;8585.440445805503;8582.67982736513;8616.217864260001;8673.5325504434;8840.09070220451;8838.85776061321;8823.174455185876;8842.037646273842;9063.058310488457;9121.63878571201;9341.312999910144;9540.681036865863;9639.379229905964;9534.72328728779;9772.729790344063;10192.90137535509;10350.492095266618;10021.394485666198;10725.219879380831;10929.16872412794;10989.1335220547;11093.987232821255;10930.525575128042;10406.933964450098;11119.24522382197;11276.716167298306;11162.961668249896;11357.534946097076;11480.17097246146;11658.924065678268;11890.603423042852;12012.201884781385;12282.559964161701;12582.382423564126;12856.288143750284;12858.36208105614;12979.958376862389;13009.878258043795;12921.185849567886;12794.250237069744;12705.678683899063;12710.27834422425;12720.583873964675;12455.232035087185;12578.02219412378;12556.782659570279;12369.783915168435;12138.531586758509;12223.411065036293;12130.78416131633;11381.580196254585;11921.435129694517;11743.084892711879;11510.566904049552;11460.416601214918;11236.961014206441;10897.650811298627;10662.489792854321;10610.359719865592;10435.991481970916;10454.202788880331;10486.01925500562;10282.616126363278;10289.367499844979;10074.365552134048;10146.873991213852;10136.796502312893;10068.529968331753;10135.935594676132;10090.380259572918;9815.882901247613;9762.037963792976;9697.289705836549;9696.560266444183;9695.556631537303;9696.61472185074;9697.203049879052;9695.58149548991;9695.067377459596;9695.626866546943;9694.981484123007;9694.24380903921;9694.358654459142;9693.65273411143;9693.849683788147;9693.872740941002;9693.86353085827;9693.431771077103;9694.370767529705;9694.160562884812;9693.923227121093;9693.34380474531;9695.52048971608;9730.917811887415;9700.044271126673;9952.024988851103;10156.986489679173;10333.26697118752;10619.1407434914;10458.07098083165;10868.524899442644;10841.782924362993;11001.42272725523;10906.962085953914;10894.316940261848;10954.025733399449;10885.985371786977;10758.58807492677;10637.301633388393;10658.852569190938;10665.410085343541;11171.065783951894;11257.54980489943;11409.373165175246;11613.288482260392;11783.015200754591;11876.311436211268;11993.552324118991;12145.041659709132;12399.748655334166;12366.619001570642;12205.820817162177;12255.84719654715;12461.720942640899;12419.234115422085;12338.506441535006;12245.641944818213;11992.886140678234;11771.381028404598;11505.24556261591;11279.936829955943;11160.910284969294;11033.503121481655;10713.499232749975;10568.304309612053;10424.542299190347;10287.386863073261;10078.10624517288;9797.853223426948;9549.732878008861;9250.902245765403;9084.99711652645;8881.044418118086;8865.75330894236;8574.494056787957;8437.390884602693;8185.375614883757;8247.171203200109;7496.545649972443;7995.471116087593;6615.555050804193
8715.554274773047;8653.126801095525;8836.92543958329;8889.101262851771;8959.270706286075;8992.577055858266;8782.94516386832;8956.879603835077;8729.236155384464;8765.709463390678;8650.041665533205;8643.84216642856;8518.640244061982;8525.320196690642;8610.354335408654;8776.594491213;8814.184658981289;8797.370439019462;8753.956202093254;8845.045560580413;8997.23063287095;9171.518531342033;9492.53101907128;9414.07330152292;9337.160224433814;9609.623857608454;9902.363459261742;10228.750778477308;9851.557017981188;10580.844914273064;10741.422325320651;10794.106278913565;10808.358899128285;10971.482801968305;10278.709171060153;11084.32921779522;11083.54576136684;10897.58981738543;11192.40854048093;11463.422083848174;11755.803808349123;11706.912338613827;11968.070368953577;12129.0898982359;12223.21320773521;12553.135389959887;12655.661186400292;12693.165555400821;12856.507741638477;12885.267765874443;12756.250747864382;12694.06614666537;12600.622901272753;12677.256292861592;12619.213937297158;12656.65598186824;12338.200234328215;12509.792069171843;12455.363943231325;12328.412258408582;11940.906288403214;11658.314229541636;12035.730282900542;11237.736530779624;11853.962514427705;11491.802459590657;11199.30904106357;11136.65445924623;10953.425626214226;10677.46044714149;10507.200415492058;10514.753251671584;10272.379489883278;10368.652711088627;10381.151592231254;10126.299996203528;10069.773924128884;10016.204078482086;10106.771393714662;10047.896929868235;9899.074768559032;9960.995263673296;9893.53006930543;9694.914023590594;9697.372454731085;9695.735950751197;9695.813275366836;9695.875243680734;9696.084562003882;9696.961240976867;9695.958678087347;9695.175236672643;9695.906414808007;9695.365346524417;9694.521565625742;9694.935284899115;9693.75752507669;9693.890475894714;9694.736568922584;9693.509897825057;9693.415534672506;9693.970407421162;9693.671182577425;9693.404764151059;9693.501522893548;9694.287332782638;9914.573506093395;9816.46268831814;10156.3287006582;10540.996106044604;10670.3804561193;10902.89936422214;10721.086131793254;10929.518345177195;10979.946953482533;11032.457295048538;11067.42802670765;11004.750415323047;10884.960418856215;10693.267829038654;10719.132781198528;10718.149086492762;10726.974199402248;10777.73727336348;11066.052317370468;11263.473522858087;11600.837818840871;11631.868216982617;11789.337777966248;11933.463018356553;12101.651348505027;12126.750942979677;12235.103158123853;12057.800831543063;12296.898800861534;12117.513403674926;12223.523254329572;12203.311614448918;11981.338802457754;11832.457503160182;11592.990770818353;11435.943566726717;11196.98097732004;11033.227882809373;10940.801299642684;10837.302331710023;10388.787338245798;10258.755256979428;10106.175376733769;9877.642862364439;9645.97247215104;9390.527236967093;9128.135091295127;8952.356485356137;8917.017142146324;8677.767226191125;8699.458508162472;8373.210857168495;8393.108940797883;8020.444552953956;8111.67462501066;7455.045114133091;7574.523590413878
8742.452138877801;8818.405858835886;8753.27128261119;8846.737007766624;8850.81630035421;8760.54541613186;8780.294473634778;8658.015621131311;8765.580053792903;8588.033583772842;8554.52678182955;8488.475150999853;8429.761854421591;8658.115598508852;8771.086028163132;8774.701003830312;8760.912396844018;8700.726951978799;8753.291052080382;8914.122059408885;9022.253426801923;9105.202399958722;9190.71128007997;9179.935259449212;9385.665723969214;9502.268369039099;9916.556986777763;9679.937548464932;10174.061165574301;10379.791714972816;10561.233975578129;10684.429308053077;10685.657336911434;10150.20194533182;10702.422447402343;10672.347868980443;10662.850856625042;10928.607155711048;11354.359290497061;11678.858585200069;11692.559035455102;11894.202524091466;11971.79478835598;12199.328597461306;12405.974162775747;12465.892985066483;12527.77102268966;12706.687832506686;12640.817278470102;12790.13934336671;12724.833588656118;12536.68031052718;12690.600606656179;12476.889992271277;12652.733297720122;12515.175571991509;12584.219892848614;12207.633137376371;12384.689027591001;12440.216208945996;12272.237645407506;12231.859628727936;12082.27224434839;11994.495964620171;11117.892429355856;11411.532260475935;11269.43463002341;10934.494201358139;10796.601572246851;10618.382380828501;10469.972384191828;10359.781369246411;10326.513126796286;10116.825863771366;10298.570529185206;10220.34578223637;9975.93186766714;9898.283725432266;9986.223250219315;9923.702899308344;9928.750714805454;9717.798047267283;9706.460494180727;9694.935911493118;9695.932770163883;9696.770459388128;9695.690472816601;9697.449999626017;9695.906563211272;9695.813064635986;9696.565925784093;9696.399812148808;9695.296103216813;9696.218348643772;9695.496488444602;9694.623438371771;9695.542167961725;9694.083334991949;9694.316237459094;9693.741946705803;9694.306325326419;9693.558077691832;9693.625429823147;9695.177902472868;9693.24097786266;9930.66695991173;9884.7501097446;10152.652667623552;9993.193123476354;10515.479332985786;10722.034514429251;10985.920112798485;10959.113401487728;11032.771316192117;11105.76851407603;10995.891561396795;10927.752393552644;10868.569830805605;10739.043294172225;10849.375881342938;10787.853286830446;10811.928721081655;10833.50404062606;10854.867976614016;10909.198722438574;11254.30549105641;11319.722699335576;11678.6881770781;11682.163520255457;11875.569406160143;11997.443356191452;12063.384689243707;11921.993703815646;12175.506773277906;12192.479295360812;12169.143075311298;11899.807103725201;12097.771822066556;11905.491353526715;11649.748168468403;11369.904233413334;11263.506545426684;11136.8500899733;10994.20722267557;10827.551747955862;10644.537228753641;10485.953360580257;10079.28688548688;9976.60709946778;9754.979791324804;9427.450877831165;9194.84594379265;9130.249238670192;8926.711125440364;8734.078267096935;8795.933692979397;8516.141913899748;8549.479167819638;8251.669746467102;8290.83170517099;7944.24006394029;7868.433890810134;7211.4501181369715
8811.579639420874;8824.500694477294;8765.320573801659;8641.272443618836;8751.834347072589;8807.32211107152;8614.537044585562;8659.077938563012;8533.197979655353;8505.957539916551;8396.88194816876;8343.302049359398;8648.306556887928;8625.678559486641;8729.278089123436;8736.599123028169;8661.343483558594;8714.164052825465;8861.38513271253;8905.27589745275;8810.06455026894;9055.529413858658;9037.754251904411;9221.281810788383;9309.931513875486;9442.612693588439;9531.930244448191;9918.609368678684;10097.669850244067;10254.625179471477;10442.480867319431;10631.765226924417;10018.059589318338;10548.580979153518;10394.565845142475;10503.753648971458;10611.768488959427;11147.654463176706;11445.612742346868;11511.875094141491;11790.461442503252;11920.798213632046;12105.200373800737;12144.454260025268;12331.41558510375;12369.697252682203;12455.67987262021;12451.542169803775;12554.652787899508;12528.067632896116;12422.63249258067;12580.07932335465;12458.479367312259;12480.179400645971;12309.786494490087;12451.163818904548;12385.738054278627;12456.296252541044;12038.855747831287;12340.796254992292;12331.171297589037;12261.54118783251;12072.238181797155;11657.015870629297;11467.466656506902;10996.040292121768;11108.23044938664;10862.676778304216;10684.152691599793;10497.057519727485;10392.322499174345;10306.52941819048;10225.009922784146;10288.163506772504;9994.753657018773;10183.112741670466;9988.592780340641;9863.889670266613;9862.155832095828;10012.021410001722;9752.775191893492;9724.03096550921;9696.833205279796;9696.529894550727;9695.744932584916;9696.012854775676;9696.997224917312;9695.530150214538;9695.42899516588;9695.930545971645;9695.694507844713;9696.23563587994;9697.876851650959;9695.828824797678;9696.809244055145;9696.145004849193;9695.137435835444;9696.21987312305;9694.049936900963;9695.021805195309;9694.766345427106;9694.041001803347;9694.785110314162;9693.432129987148;9802.261000076644;9777.598551217408;10166.083259744846;10156.106222806455;10534.439038512479;10356.153540963136;10764.18816289058;10993.435313252914;11075.855282766028;11006.507428985991;11031.187533673776;11000.400073229102;10916.964163955654;10788.915173472455;10956.059644654444;10838.508480554767;10940.365711338873;10882.241109319217;10946.68252538652;10976.717970709095;11018.318871241096;11065.31405305623;11549.259231866527;11487.839241039088;11660.45469284954;11781.979419963867;12015.230222645638;11835.775446772815;11974.10647282578;11949.041652021926;12019.331192953843;12083.331953723566;12003.040907028062;11635.774686549834;11727.722757339528;11455.747231157235;11331.456003695632;11178.63129760123;11003.933430546174;10919.902083547851;10724.951329292384;10558.16022559028;10323.450615320744;10266.8880824581;9783.40274021084;9599.70284973019;9357.306153659374;9095.78944834774;8871.687785623519;8935.360771549113;8811.53776653717;8646.855810231405;8693.123459142731;8428.434656325004;8376.215592441764;8139.906158204977;7858.773717527521;7595.664484408814;7667.192065860919
8772.471455092807;8773.078162441852;8647.865104254874;8495.710846539176;8673.697095253101;8651.65689151379;8497.313170286245;8659.603977945462;8463.547196300482;8318.439684753746;8268.557993689388;8578.64626710425;8469.138283783632;8690.245713669374;8689.325801828974;8637.586259937605;8683.513940924066;8759.929648251273;8813.708279923296;8709.774918226307;8852.974329488872;8946.738816474444;9037.021006234263;9069.121001772812;9159.775544113221;9411.184703500825;9673.673215673225;9912.414250557358;9887.423604641248;10289.779001119834;10415.5335726614;9885.02417088253;10557.211572831045;10343.764488768658;10347.916519857245;10341.960975248465;10712.25069924525;11014.655940159933;11210.952385152246;11524.256625466893;11558.871579430212;11822.582708860624;12083.238790767122;12088.743038900298;12234.329977000933;12374.238683715437;12251.074480715495;12298.256933296147;12443.757073379875;12446.88509845647;12267.458552455577;12474.65688274087;12416.275836170153;12299.858391861395;12362.13877293338;12215.653288191093;12247.653642149344;12399.494851079526;12349.82653929892;11886.257767768286;12211.235120227073;12151.567334507727;11978.506198387324;11843.204138386813;11573.098095182577;11179.00962984682;10877.20266729917;10939.866252666015;10607.707965541413;10453.214622259282;10319.800397651321;10202.626710613305;10221.913364796663;10118.394621275183;10129.42413567895;9921.031347379856;10039.037491406241;9837.408228451015;9827.185275338194;9764.16635132984;9767.66268479477;9696.347985591266;9696.70281927734;9694.536021781936;9696.575274752086;9695.861339549076;9696.830951801894;9695.545811837506;9695.608336984398;9696.839894973156;9695.9276755434;9695.691051585603;9696.136260097996;9697.666873791306;9696.100073771351;9697.637763009643;9696.464464574983;9696.803777469464;9695.725656179697;9694.134107668026;9694.083887010613;9694.288149717515;9694.254826333705;9693.79515353666;9696.306801341314;10006.857335152974;10152.822175405014;10340.399973418818;10411.643257992491;10573.195870807715;10719.49502788635;10934.128975901593;10869.920648933421;11009.373688821408;11068.938429550602;10950.597751746183;10848.60824359076;10971.828552351213;11013.671605581163;11022.917403646516;10987.591533975352;11006.81785463247;11033.209735594923;11129.10741392227;11145.642183544049;11254.520611466243;11249.669410880964;11445.923485711224;11650.760315758846;11893.966043151515;11776.171750653783;11915.761774193357;11888.918780892145;11728.056192519707;11813.28098431704;11808.467232262217;11631.827246898403;11793.130524637385;11351.003945460401;11268.332366632985;11155.982475898509;11012.993815026639;10974.002368656911;10849.475304322496;10763.511863764179;10406.45622310499;10205.10039601842;9937.25358601243;9854.016672096237;9532.94226801681;9238.783632421044;9019.82722587624;8858.498656592903;8636.23377877129;8812.811198726788;8709.910704771275;8583.446599889616;8601.60301628905;8344.32748028867;8144.453957717843;7936.102047102869;7458.0328558402625;7072.544305409937
8726.57561833541;8750.291805210607;8595.376437486797;8353.155361352798;8548.576805774232;8345.952488667514;8630.967398964425;8719.336055020514;8517.45531680781;8204.251772828778;8290.97750251213;8453.594339883002;8753.753550255911;8663.809906964194;8620.524424298226;8639.902483671467;8747.81153371522;8726.396090204762;8628.616394666416;8788.630674902983;8900.368613739924;8921.578641478642;8902.20831218221;9082.756292965783;9293.43798486207;9272.279114705529;9477.732316054033;9541.055020123218;9690.023298963948;10085.970088630835;9763.210861976007;10231.253432283393;10361.393923581301;10267.77818490114;10114.818584835408;10351.948445894563;10671.52404343718;10851.213408726653;11177.189184644678;11231.982785188313;11749.05554330783;11906.776910024677;11893.52973222818;12021.671525828806;12175.469998491488;12246.712411920915;12059.708423187825;12351.120700018328;12413.375531339472;12282.460052045612;12125.968344933997;12354.096135852542;12309.459672144636;12217.94881611058;12125.252433370111;12204.61523207706;12112.84736640098;12308.682049447754;12239.487151161044;12179.74907790438;11744.987650297473;12097.59863086473;11849.220933302804;11638.633554015243;11445.741718712634;11343.415837698416;11181.371256992028;10760.140956328603;10710.863533415613;10462.623722267246;10384.163719712691;10304.09406587667;10118.31625668774;10067.558084173575;9999.649604984079;9945.011867468002;9874.611318263382;9847.647702879745;9800.1666999335;9753.815845465633;9718.349414888628;9705.420233948294;9704.958522558529;9701.490686549478;9696.499405231942;9695.658251786255;9695.879166274386;9695.74440853365;9695.506887904736;9695.55421471647;9695.438811134922;9696.131071493452;9696.282550138694;9696.544946700127;9698.416416323293;9696.658569636893;9698.9504985376;9696.601943135753;9697.647464202102;9699.512535421287;9693.752226347868;9695.038590689437;9694.65606194712;9693.52991399592;9735.510809650103;10059.78058316735;10002.848664108613;10428.409337298188;10610.180654933425;10695.050576858477;10788.266664354036;10698.399620602184;10972.271750749911;11091.733580080665;11065.204969665767;10968.555459527164;11022.194083209703;11184.3290796506;11210.789705142972;11264.665214840617;11197.492692429209;11308.679006474722;11118.899458880507;11332.256073398039;11442.340265098217;11345.798112102952;11579.278102564393;11516.499644512915;11602.042312899139;11714.455261412913;11820.65065012918;11860.139392552315;11834.75631865732;11476.238364497876;11743.92032442808;11687.264416157817;11469.739504549627;11299.652285668468;11504.587263934081;11019.058126863012;10978.838679868466;10889.81609341437;10821.77314860157;10751.455708566256;10683.348319424385;10558.942929911693;10119.616276406417;9798.303622139338;9489.126315343456;9501.724852293377;9226.305386993325;9001.355877092625;8798.627699095621;8745.860935138797;8439.42319768179;8596.489213424102;8663.300097884392;8485.163364917153;8375.38011888741;8204.257627206967;7936.02436006663;8009.380396036199;7730.214036068594
8567.291925542515;8604.818524965336;8463.257104453893;8356.25977455189;8177.735626295699;8425.227064659422;8618.35466207932;8572.99665431373;8347.021251835598;8074.883893249848;8588.134899291534;8652.872487292843;8630.062434960648;8622.863698766894;8587.349990977775;8703.585091135486;8604.86750844986;8570.780053194725;8713.091394974646;8811.175810891156;8815.297253279452;8785.520522190058;8968.466086322998;9183.47574465608;9141.621703703648;9163.15883225012;9283.95402338642;9422.56002847282;9465.618248776715;9635.649637236595;9965.717791982326;10172.598477146814;10021.780480569501;9950.202374515982;10169.275653123605;10169.743444848864;10441.59817217883;10784.08018983472;10860.422523365381;11457.488836600485;11700.010132411226;11690.488237079499;11820.994781646546;11898.425273672747;12066.013516256888;11840.131926013528;12231.358367151097;12339.896092838182;12222.853135642203;12132.025821348918;11984.695681900106;12180.503686821477;12119.815003372958;11966.011059581033;12174.80645522353;11969.272802576856;11943.887837538314;12171.780833834102;12126.776011929316;12207.594937823931;12037.565266290865;11598.771146120016;11765.472318369346;11560.699285770264;11368.868329701636;11307.529609444464;10994.529187620687;10939.812577170698;10649.478493055882;10591.136774096893;10378.396774013872;10174.7741528074;10046.883225751211;9989.184918954357;9941.671549683662;9876.655907898948;9824.532615729346;9830.894029960458;9774.609376725322;9734.406464449032;9719.716037020986;9712.172702471787;9709.98311968019;9707.392662361206;9705.590193288124;9703.407647592401;9702.594609681197;9698.708705874222;9696.490052118636;9697.676593554748;9695.58089455367;9697.373826735136;9696.593768023933;9698.189646633953;9698.782092485635;9699.674940390498;9697.417241335017;9699.67020960008;9697.706139808135;9699.57306940692;9700.955098656425;9697.688438123529;9694.484938443376;9694.544793500569;9694.690044914667;9785.700126426316;10123.781589538314;10466.272928677616;10740.474822897162;10899.902359384752;10518.138582885142;11033.151032435242;10894.810898648378;10982.243773498885;11054.621171001534;11100.030694790195;11034.577350207946;11227.254740736993;11360.218036386825;11377.573992938429;11445.277930493183;11622.533664813156;11331.10331651368;11272.260129619393;11471.488468688123;11601.241307398097;11536.085116770944;11672.625108383716;11640.360924641052;11614.081467007858;11696.2989465104;11770.092521889357;11771.664288277949;11610.536510229354;11143.990513617264;11422.166662247582;11321.28514048922;10990.80648468294;10967.971156570897;10988.33359522187;10649.33773549999;10784.103532470934;10691.824744978778;10494.429910682651;10480.60043952147;10491.170820086023;10339.750056380686;10141.882140798152;9774.51259084744;9094.314927128587;9067.15020679915;8988.229611995343;8753.955114003158;8605.91634079532;8607.403977737686;8181.408707078962;8376.930850694353;8524.041181874112;8273.245790153585;8111.175491940857;7956.768299826142;7690.920595031056;7730.640574714572
8383.13160484664;8375.152209000917;8223.766773514431;8055.187530524788;8075.881900593356;8390.197658449018;8328.767489904156;8546.648344565878;7935.91249769538;8462.252324346704;8240.100585552012;8477.724293680927;8608.251995831688;8566.525213324392;8664.589289536856;8555.458752019324;8522.059919670923;8647.84463262192;8701.40335133869;8757.345945912617;8692.746590622039;8829.434092277315;9086.424001558567;9018.108625810659;9074.787540201094;9175.280984427227;9242.862702798611;9322.473686632617;9540.919272082127;9571.894881051554;9746.691486236032;9759.4203025364;9823.66032317487;9927.32116401022;10026.228829155538;10250.659275758451;10570.304181429387;10596.979228475553;11176.37248473594;11354.839103920993;11385.89930247386;11570.649917949253;11774.722560820719;11689.584009665097;11684.461671084977;11937.121002458745;12115.894216933662;12250.721552635943;12243.38681830866;12052.377973609277;11831.900370018931;11913.08366985359;11944.247804084174;11792.748074493124;12054.296722148702;11773.748586513357;11894.037526757747;12097.321192623538;12214.93783875027;11970.510604770516;11978.194082690741;11790.120165871715;11466.468918643717;11559.712510263962;11444.164977829289;11142.80101901375;11045.481062597373;10837.740274262207;10809.640894526234;10534.15281721739;10621.924146218393;10547.851847287617;10303.707042547678;9976.487261465223;9913.358115598305;9844.614344131824;9844.496470689352;9765.10836264483;9791.254765491918;9712.670543776301;9705.397935359058;9701.18242614025;9695.845070739884;9697.638581576739;9695.2919003643;9697.416233590866;9695.88689907085;9696.587770583043;9696.649666645557;9696.281703638884;9696.567387030602;9696.5294478096;9697.669423536274;9698.031201188554;9699.253977961147;9698.602726877529;9701.219263583323;9698.352933590333;9700.562277795034;9698.989300734185;9700.266707935385;9709.609960328191;9698.21210425378;9695.502257511656;9694.342764218352;9973.947400230853;10078.948205661447;10449.476895592925;10618.65274841322;10307.579645209276;10765.040508352566;10952.784345771852;10821.005450921602;11058.682385150063;10935.22429223518;11065.362853237646;11124.181108253513;11123.282711566852;11248.709269611121;11387.292774686368;11525.958904907591;11632.48716254289;11660.309682653886;11478.688951184347;11549.920174647708;11580.047096036575;11613.91297517439;11629.988352471551;11492.315087565894;11564.567248758824;11634.603385838109;11660.12123455534;11483.079240162548;11524.558288730579;11302.689019750811;10758.022537986279;11084.706046446718;10779.921877137811;10268.175351963848;10706.70832356907;10117.615221825676;10812.107770217732;10799.622859781924;10440.109738452335;10024.442519076449;10403.015381271674;10240.52255086253;10106.058086332516;9881.658385323051;9476.56407407807;8828.231342475941;8711.453210133317;8745.866246646357;8493.6462627404;8420.57001198746;8512.46544687081;7874.258506258481;8164.176636665151;8323.740056285202;7972.280258228256;7727.096084413358;7543.651538728448;7252.068687579452
8469.819091353198;8136.8302565892;8083.754084140813;7890.16389946369;8153.864958142559;8267.5654174624;8193.105343153915;7870.287863786637;8569.366451167385;8585.579165264204;8596.18717069738;8593.387935615534;8532.994457226367;8584.706908749216;8553.081924764778;8490.679500393064;8605.778717971443;8608.03630237768;8661.532855967303;8607.32592090769;8749.54463555928;8943.167843038456;8865.755157069361;8917.082096933616;9054.008947355258;9100.770043377528;9197.625000547476;9430.844511345127;9404.837529231176;9573.036628376667;9564.630834007843;9706.6569364071;9716.999509935802;9828.227507470569;10068.083205320396;10298.585554900765;10382.764693255867;10913.662032068507;11043.991087938153;11111.226076217878;11287.362245603876;11703.946378076285;11480.366476071336;11540.643771659375;12024.768131966186;12012.745319123664;12083.08944727058;12204.978152747397;12313.367906405721;12239.254009487555;11943.598065828432;11631.546198230619;11845.573405175688;11659.462585586716;11655.078337737898;11674.753165511298;12066.587189937647;12004.84775214536;12138.088678134332;11955.829341000237;11807.722186225674;11758.68601625572;11609.684106601297;11331.539417691132;11303.002496699908;11383.841742045366;11004.167583774324;11008.384095297624;10633.80817068393;10935.315762476377;10464.620009884995;10606.019290481501;10208.318111924218;10182.96785401463;9871.434703059043;9885.637922437636;9798.98300591106;9804.39771432881;9742.278026333432;9761.44738992304;9707.091028386607;9698.118953634832;9695.877567256557;9697.169574442843;9695.809336614424;9696.061513548357;9695.064100628137;9695.662750395284;9696.130267914254;9696.297076904593;9696.632143607378;9697.714454042292;9697.538414964187;9698.794330683853;9698.73760262275;9699.968570284535;9698.937534550554;9706.607967359749;9699.10605314999;9702.68478605484;9700.069913980664;9708.824513338965;9719.213988322288;9699.833687283251;9694.99565897277;9756.324769599596;10130.313685647481;10330.766731209009;10095.108398569817;10764.676956306328;10929.768991753976;10834.615729201465;10535.962640054007;10723.58699760232;10894.55252441932;11076.18011956364;11181.38749221828;11224.960883433694;11248.436334514543;11347.747443101984;11523.051335150943;11812.418540998297;11764.040848602068;11665.387980157291;11622.41982451718;11576.753679369736;11598.817831803717;11510.577037673396;11380.514269803913;11473.848899277229;11646.604814144088;11559.033965603696;11566.477090185548;11275.321995196111;11328.788221440576;11133.789913886754;10355.451746496095;10735.07046978195;9839.785800573798;9564.468962706651;10354.802848458938;10603.649147254258;10748.133674237073;10598.155563137083;10310.044173038325;9628.710255473798;10275.869935408857;10122.116022532384;9776.177487279543;9599.359775739333;9121.81823016165;8558.580001360515;8433.49776112975;8524.502201244075;8249.079116997698;8266.939722867388;8384.320205808777;7481.511954023331;7839.672993984031;7933.839323364334;7626.105694684523;7299.613866818504;7118.49381820978
8387.16820502037;8239.568207173917;7876.571002970078;7807.949147891609;7989.968620183635;8196.17018455925;7805.873036687132;8510.07499380776;8524.719276041702;8614.431900849697;8569.136801565695;8597.79026647246;8513.372618811507;8522.083645805014;8446.135373303936;8574.096601344092;8519.115699401387;8587.306780057963;8524.957615165375;8606.018205681554;8816.104891372812;8769.307295055787;8799.339987516647;8888.841077075002;8950.27079639745;9086.852533731115;9311.128610497763;9264.030206992702;9375.300053977207;9452.925438463084;9616.623225737323;9611.452278665289;9754.8366970366;9901.260170985981;10005.298739633981;10319.082815186684;10825.039113271669;10512.678519065583;10853.16085711206;11027.124501309896;11335.029163213272;11231.09982506347;11425.047440486145;11875.936620741617;11870.515885294273;12144.62805366896;12179.232182653679;12199.740155398038;12234.373929524303;12150.586850576849;12001.39408583449;11821.265981900673;11501.979989058775;11798.186664639838;11478.621587517337;11703.101284003827;11849.037131860012;11925.154984537614;11950.730325430537;11849.847645783866;11737.095301635502;11598.90440594604;11469.720289398978;11362.26870722917;11198.391244797327;11278.524979854887;11156.595790680414;10730.58494802472;11059.262746665045;10903.751721434728;10665.562889040397;10363.32384526428;10325.434954007153;10260.84530200058;9902.54899065727;9833.697135848906;9850.363044892772;9785.597733996525;9786.670121554045;9742.018679419903;9750.094603835969;9706.740329787935;9697.0493241451;9696.02579370451;9697.308188813164;9696.621520341218;9694.727107083185;9696.172907167456;9695.845762096178;9696.295465506868;9697.76233976279;9698.009499543346;9698.635553852484;9698.11802252214;9699.693943019029;9698.846781050877;9700.353793805138;9699.861645457011;9717.914008376141;9699.60104423008;9702.81643466475;9701.777539431816;9725.839726544062;9732.831098038158;9697.438736750326;9709.464762700427;9990.453669573013;9907.703364888675;10333.935346633258;10606.910212960964;10591.869908407862;10345.842110861544;10854.213536125179;10658.77187996207;10805.01066724262;10961.588165584802;11113.659665608913;11361.997722946475;11347.896993854676;11437.327344669266;11515.860256200835;11766.12938143676;11766.800409685358;11679.711959950986;11588.536099061901;11575.902497183917;11495.738218328624;11485.63301462401;11295.273569045687;11433.02874847758;11464.83036244351;11534.692411523738;11149.530918295524;11325.921933724992;10999.376862153582;10942.831496366205;10885.334628017517;10009.680328097766;10699.763741289215;10669.366309499459;9263.307296506326;10334.739806387803;10619.448709488715;10673.540045929261;10628.729477405119;10266.359411471603;9297.865245835925;10067.46390551767;9755.985616797487;9389.246983375157;9236.11034810502;8898.151431552076;8284.010196756575;8159.875797659731;8326.470378332317;7981.308270550801;8126.685420168501;8136.220486123743;7105.843052410178;7539.024078578473;7616.707710033182;7225.546724658362;6893.918434288048
8161.956321370973;8132.4967790318215;7981.370320824691;7747.427468014216;7955.978096806234;7743.19108811981;8198.212913942632;8505.291390429564;8454.08591021815;8516.14216801577;8601.611956507615;8435.933104764426;8502.617348775897;8428.913232925268;8554.855491066119;8414.571727275463;8548.307202510856;8464.155167444085;8513.32051099134;8719.58019297937;8685.862927600418;8741.820614372558;8819.869831449523;8893.096255001281;8974.388512084533;9194.122821740835;9137.496557873874;9203.22253459055;9333.956460966267;9450.078035193765;9503.11701042726;9689.643543949805;9804.458490829922;9882.088761369061;10198.056240301496;10380.958705870333;10614.372972761095;11061.330729838297;10763.897847061387;10891.371186368906;11061.989911730903;11321.19361140754;11602.64390407822;11716.36411455644;12105.884687363949;12110.738015306888;12265.812299528872;12107.578670530645;12204.037520867641;12052.894245119904;11891.029629853347;11810.41923738228;11832.58512877132;11399.544401260457;11335.312774589354;11534.910168509268;11677.17093788947;11766.947838275792;11758.836296163965;11814.805893526518;11751.17011997489;11637.566872162919;11501.323127820116;11376.081045593226;11241.062678084327;11084.490388283131;10894.335119169325;11098.478391555742;11059.996371231427;10850.011155470416;10586.465193392982;10511.604330554237;10260.70492528049;10072.041223857668;9998.980413573467;9926.180536708205;9867.58163646805;9819.37745556382;9797.209207382533;9764.248853602676;9739.374599750845;9735.933429209686;9708.748402686593;9700.022289182762;9696.184963432275;9697.16033661673;9696.665631280142;9695.550564297002;9696.504422174232;9698.332936738363;9698.751944289346;9699.168180768873;9698.648654482084;9699.531644453938;9698.656617401906;9699.981561965102;9699.930891535754;9700.893383399402;9699.783725312376;9732.282885008008;9701.153690296753;9717.981536975534;9713.894646082666;9743.091525799759;9758.320265975563;9720.264499168123;9787.49119251049;9943.87946715052;10210.21901166459;10111.494729006772;10261.818501491372;10812.063893890274;10879.472434972748;11020.804262213616;10911.40620814914;10964.866227644914;11116.332169507237;11250.269439876814;11462.486036589573;11566.590369086989;11649.681188660677;11719.438979531715;11750.86208499764;11649.221450613819;11574.191386365394;11501.330788511463;11427.467034051031;11355.65214905755;11380.616924341077;11140.150727251115;11341.118959720545;10833.590600232266;10665.634325545569;10569.595780093252;10452.646573192229;10339.78431971485;10225.165707706154;10915.830697687561;10851.590995186412;10250.502668409215;10593.30480558219;9094.395310686006;10215.585898753438;10327.191452065079;10542.635806184095;10233.333162795076;10145.83130722772;8926.968227292557;9832.647034941965;9388.459864404791;8959.215329056573;8709.362982608429;8505.58559089596;7952.071684789854;7875.972311612942;8117.882339058634;7685.599688038815;7924.062038657729;7840.623916595186;6713.914524026278;7101.285931618556;7266.3252492762285;6734.770437678709
8171.573021964327;7889.678270735339;7824.182914746984;7723.281070965454;7676.6318972018535;8046.481952145993;8184.267283562912;8201.84804178949;8210.750835427778;8549.620394589234;8621.303963337257;8619.991247540464;8402.222650839773;8467.60882765779;8359.061023486996;8473.031887306573;8388.825959817477;8433.127383652001;8635.777021092272;8561.940279307219;8637.847539290353;8674.870799540222;8772.295823195338;8872.726605588632;9091.325078352114;9010.497226584084;9099.582639482072;9254.934554968982;9348.26464150451;9390.935589741686;9500.52839632106;9629.18492058606;9796.464782854116;10036.176269679421;10044.888333401534;10379.476345529809;10850.40227070092;10880.760686188769;11274.267346663852;11352.48334956996;11289.137430390965;11616.55537738662;11772.345759022246;11994.328202363777;11952.370797530915;12166.54615544884;12185.008310243113;12017.85572167637;12194.233855768955;12042.714640051166;11792.14571357554;11762.197476943806;11671.024871895897;11581.137933696868;11228.606567506184;11396.541035829094;11578.99227067786;11679.851302044874;11537.996021086277;11767.458979939216;11824.816204897314;11732.793826233075;11655.952659804956;11576.737946506684;11411.593782218748;11117.179799852875;11314.320068366513;11213.92690783148;11211.922771093552;10882.521872121699;11013.84164912979;10849.662911196589;10337.503511767154;10153.586375107145;9951.551635310694;9895.479973189977;9811.373497431221;9786.739459012166;9776.668655558176;9743.488447844727;9732.096937460636;9724.154394678324;9724.965948129917;9711.300921532329;9703.473074209487;9696.438970992316;9696.311389973147;9696.946159317966;9698.858617037342;9698.250426355593;9699.71419451727;9698.902851596325;9699.73009358926;9698.657857986364;9700.193074144041;9699.471256487115;9700.111617675837;9699.9537037064;9701.092522499064;9701.808856694268;9748.073852700141;9701.951924931247;9734.45946663864;9718.491180197583;9776.454596129475;9804.113073845663;9768.082690392475;10106.897153211128;9985.653988169754;10516.644497236273;10558.321103322094;10689.472081445623;11080.856531679798;11125.435718033867;11209.714713523386;11108.205825040815;11139.274887491283;11298.019240793583;11571.452764566679;11628.87658626341;11726.877281028756;11799.164531459915;11828.113840699349;11751.715535175943;11628.07711314585;11639.032802584468;11509.847273516036;11361.177564583315;11223.2665031195;11112.681032539655;11005.112586061037;11332.502186904097;11081.222245471276;10964.540702123257;11113.388634059782;10636.793870468551;11043.139278383267;11095.427846644416;10721.238036878887;10767.049421410848;10531.968666156354;9363.563188392014;8933.526430874434;10559.35202299646;10640.051481591563;10449.886708682705;10231.63421440907;10052.32456364993;8593.153500883673;9285.801982686495;8928.578135117208;8648.000903948905;8397.961933176008;8213.054944127827;7621.744001364178;7587.419972722996;7928.068009034226;7370.040424295387;7639.94568814351;7370.775181853986;6271.951626401852;6577.071241529225;6797.198285203641
8216.911629739003;8061.274844242084;7609.371821109479;7607.487057277031;7706.626416222935;7909.515372698547;8015.018183504141;7744.825059150894;8345.94488802841;8603.256264724663;8654.57402426763;8522.9821674341;8465.11937444788;8320.697053284042;8404.201886150127;8323.811584141728;8369.702168321946;8477.070183916388;8481.468444712933;8561.910702969413;8601.852592031177;8687.711516582105;8764.446994999435;8982.993683010423;8922.905406369686;8970.941678953775;9150.626734441648;9249.514079936213;9299.586256817558;9434.777954546204;9605.42610780667;9693.859974472525;9913.440253798992;9905.120914304931;10298.481328060472;10505.532156906498;10649.400139521997;11091.383002946477;11135.022242078681;11271.931612085533;11531.996121240518;11573.836444006654;11772.619231346955;11896.867135455053;12172.37869800532;12198.479487645167;12203.982644225278;11988.853097829458;11862.471100334456;12034.439727192708;11744.471027695741;11661.224288099882;11685.195583239907;11679.533957401381;11650.995960187985;11092.051293145738;11440.181558514862;11579.9815495029;11299.74544661857;11543.283552120163;11814.914218883212;11743.335846803657;11658.116074661313;11560.56461366836;11411.909485425695;11331.070352807525;11311.065763510262;11280.575891217766;11062.578425064406;11073.150184320257;10925.042679389702;10742.599486103285;10540.606910936734;10170.026848511741;10035.172513480586;9844.809468265015;9806.09232915569;9778.054702333611;9777.759181861838;9773.993806220431;9761.764205923613;9748.560376101559;9733.651954003806;9729.729683753561;9719.669072271168;9713.670711901257;9704.599701259067;9699.928868443258;9699.441543993285;9700.669018999284;9698.97736495134;9700.442917465272;9700.61693146827;9701.075790285297;9700.168891117435;9700.975648643078;9699.595221449345;9713.999706672508;9713.049665046325;9713.311539605591;9704.97811753456;9779.850462973263;9737.012005703902;9754.555033044293;9784.256611191202;9824.1984757303;9844.552324687691;9920.211119324355;10146.300605858916;10265.56994889427;10673.380651686999;10732.823319114228;11045.702644343852;11111.128559649791;11068.921422584292;11050.788868523774;11209.886779368382;11244.1775821579;11539.272130300658;11630.946937455748;11824.48627797555;11931.841841940695;11889.24148257216;11739.439389738443;11734.906779462803;11579.88352558377;11444.50189172741;11457.060425056228;11506.089746318023;11251.202328226562;11366.813539791045;11337.13452951386;11208.104459293056;11436.281392213139;11004.775842737741;11216.2323490374;11113.260004546242;11142.663466006099;10942.537299637115;10902.443605952674;9676.018782152983;10413.117906236628;8629.534788375371;10388.90649564594;10517.359122124479;10476.72635536304;10116.78300554026;9881.559742412752;9709.253778216098;8220.827567823813;8844.990702802424;8586.51105355781;8273.29201034423;8165.91149856709;8035.13582541356;7192.359695562179;7287.932051119048;7662.230622794073;7013.022973300817;7252.922159408142;7171.697573918052;5808.704008970887;6213.5100575675215
8007.668073522321;8006.9919773500815;7869.6938111507125;7485.0949705050525;7674.03055944855;7837.899915279523;7464.418816024295;7914.021276809085;8431.163231986287;8457.837662374597;8556.41469564856;8538.868700867402;8426.739160591995;8369.421415568406;8249.718935218367;8304.428067550329;8415.824051900348;8405.999214470543;8499.374817516149;8530.084772236314;8610.051091939684;8675.28603208012;8870.990625402304;8834.064166444805;8898.038021893444;9051.021223678403;9165.648357856651;9196.444180225539;9335.03957572399;9500.517146637168;9643.238424739608;9849.444812758473;9878.402702093492;10170.658509481917;10037.96946183499;10462.351438930265;10565.356036650359;10852.140050806967;10942.50125310487;11173.733180299518;11458.671830001782;11497.101957795734;11681.54755145538;12048.008750194858;12222.812269619786;12249.42009255951;12155.753530474929;11978.912185744204;11779.569859971998;11684.315193618466;11677.542627801286;11546.649019559587;11653.56087832723;11687.657669858574;11639.265063674691;11505.691516540715;10993.378034933889;11371.289323019231;11096.57381250845;11473.538429321852;11556.656645391693;11681.274237504967;11638.905223852951;11428.664958117359;11382.323093631916;11218.020273963855;11130.720535869983;11245.846999781872;11047.37343371499;10759.625868094707;10873.139098555443;10618.329340200115;10650.587575694419;10360.260385057598;10098.687042207199;9908.393661403505;9746.865303080504;9721.975562439438;9729.530554296758;9727.716572097452;9723.202754562491;9719.307937921581;9717.997393031746;9711.74729365097;9709.499083436116;9705.53865750055;9702.579149650788;9701.294891415499;9702.240312312038;9700.516654576717;9701.774695609642;9701.377538962675;9701.882234819099;9701.059205181671;9701.717535944532;9700.027989152113;9699.712824045684;9868.361579602872;9855.277743385785;9731.795140691764;9734.497485902233;9736.947076898174;9817.59215329972;9789.110971452665;9780.779407933314;9832.048357462278;9911.483939497346;9895.646080315266;9980.593741753008;10283.7024621583;10391.762006266228;10564.597245541263;10804.998404543228;10927.722300566384;10752.614876562198;10919.701212985812;11150.838527076314;11281.756258967373;11368.669847669986;11640.354940448953;11849.847761813773;11887.116064488953;11893.041203076631;11845.846512506614;11689.30190301576;11556.629597503616;11574.57962009357;11578.171302464787;11546.407794322939;11445.995570596893;11532.42656985122;11469.797838813669;11496.369323989398;11347.527422158495;11325.780149704307;11311.050773742238;11308.593472845878;11196.092886781116;11033.347232339547;9996.88576465517;10683.460121452878;10291.667764219346;8439.46837982289;10060.048819539024;10289.815652603062;10333.328366129994;9990.705080740958;9652.736215130732;9310.614606147486;9088.302337958125;7848.370383383454;8439.888721301428;8282.266808113913;8003.702741099453;7882.014815408123;7703.196600959688;6793.605849303954;6901.336244192585;7277.721526595521;6563.920216976859;6798.475330064578;6656.634076516272;5317.030287321383
8037.987292047174;7732.159902355171;7661.869363351655;7424.835574897822;7591.280146095197;7398.274815142274;7495.71894305902;8072.974838186922;8163.757499821936;8468.820140570333;8269.866634291368;8512.063177160628;8487.07518829697;8285.305363834676;8163.9605075482405;8486.946006432845;8330.059909565505;8482.202921824733;8452.97466827371;8522.59922532428;8567.54422585484;8743.081511030243;8753.658629925765;8818.183795037636;8966.54783107046;9083.448516743782;9117.302111862547;9236.32554016951;9426.122308322112;9575.82639056829;9790.979443046472;9943.32368402704;10087.122484097541;10174.741136688212;10507.868394622172;10192.214880473366;10901.8557998836;10653.364749639106;10826.940075855553;11034.008270173646;11324.9586263163;11642.380187742223;11781.38411561774;11921.518510488426;11978.857795695163;12128.91804284093;12014.106963370738;11929.010500886448;11707.599256696682;11629.2197094921;11523.452418568231;11458.635057907552;11613.646958765006;11541.233146225142;11734.876294467023;11647.004742324829;11619.63227331924;10903.110869806707;11405.933770292242;11241.113190389195;11386.145380115144;11587.74054074588;11526.732027240527;11443.71572189774;11161.608668049412;11110.43434411575;10994.624593020024;11296.786883655663;11212.91912415643;11006.208397038226;10387.621950563363;10526.073240402347;10367.305460791707;10339.58426546158;10024.313720508166;9882.03013059291;9806.674027012807;9731.062592097158;9720.519460330568;9722.670334489532;9716.655472387774;9717.140383118629;9711.463479060487;9710.493276830326;9705.786540666802;9704.912510121165;9703.114641515931;9704.623941850583;9701.595099088012;9703.03580265135;9701.911123659236;9702.888911982202;9701.46674047871;9702.268346204219;9702.279812647048;9737.778955504058;9806.308632398606;9900.783555582108;10131.052089806068;9909.854624344855;9789.807881029697;9850.649412217823;9799.81343797002;9854.06153517629;9872.744163433057;9876.813357632629;9910.52989964473;9981.977007697857;9966.880547335706;10050.64204877648;10263.61853999594;10417.433843438088;10720.69087143692;10534.55839438588;11061.280459377867;10977.510612383066;11098.54401049111;11246.276062396777;11397.837200171794;11513.790677619902;11702.240567474662;11864.432223874399;11905.275724360235;11837.695406642713;11653.074418958724;11670.37920489315;11695.244753992305;11804.640666361418;11764.86831123447;11602.777735948534;11714.881416603432;11791.131363583605;11612.368303745989;11685.32804118186;11513.656790566994;11396.661495618802;11134.267300967887;11234.214827715045;10272.551946589374;11071.978136373225;10777.924891711336;10212.544390602816;10231.86854161125;8093.600378693082;9748.587127143077;9845.690356856743;9509.699873785037;9254.665097509765;9205.773131973907;9074.852504852726;8744.958374622503;7470.68326031322;8087.952765149003;8086.344219704032;7726.928858058965;7659.819543822588;7501.112307760352;6386.938858460667;6446.120966788879;6889.05761433444;6131.2396816912305;6334.511211514137;6204.044214198889
7862.962304789425;7705.678616934941;7402.963292382002;7508.821260222875;7306.596983644552;7662.6220682192625;7730.857599168451;7544.085070464193;8160.634209942979;7899.995297726097;8483.235878328767;8081.73054560891;7944.218038876391;8043.494056732533;8365.413882204011;8238.579787971197;8390.68435105696;8383.33140356296;8481.473212642253;8494.11977519223;8664.426299284449;8668.598571180675;8765.346610981138;8883.812579767353;9022.009282715913;9028.481388498945;9061.84209155195;9243.90462129646;9536.338927371424;9812.824921286403;9824.862771084288;10015.919890730045;10364.580944664245;10495.652206459159;10671.2653968811;10771.011354145478;10421.506113935935;11059.299339645975;11251.001407122465;11302.647296666953;11285.860943873206;11463.29242913389;11566.006196211576;11777.9261010667;11914.792282892951;11862.41371196133;11844.471103384782;11717.524650783835;11628.158976203897;11442.310532356067;11454.49265401483;11384.75850403955;11488.157363547285;11413.060242034015;11613.139920609985;11598.550239820644;11547.051210705147;11295.490315251787;10791.176282385677;11039.295906016836;11311.352492948765;11468.151854829703;11305.391317858506;11307.44267921094;11168.045889576879;10898.61757422081;10824.939858536203;11026.139000358435;11112.006059939755;11019.05694256078;10700.771405327;10097.698584437188;10218.089842027828;10044.735369575377;9999.648463596153;9754.925806552783;9735.687937759249;9792.374132757723;9722.336372346097;9714.39712065379;9718.013145168283;9711.923333414314;9711.490778489817;9708.36896017336;9707.0743999117;9705.527093146226;9706.065677136437;9702.895829130372;9705.017256756099;9702.489479340693;9704.256371469382;9701.693901667993;9702.734251927803;9702.263315474433;9704.679770256738;9706.984038097442;9956.926715958514;10173.659881321579;10226.321512762606;10053.520320663229;10080.883392983735;9929.70007830975;9958.622057667373;9875.18877053573;9898.03790620563;9962.603235707546;9920.481907013156;9977.897434431121;10061.453182469693;10035.226454820564;10198.932961358489;10423.643167246057;10413.773742661499;10973.180378508605;10847.081100653333;11215.46569847699;11266.71133174887;11372.88656550692;11444.559543315034;11576.421553481276;11705.837441205407;11813.126191010324;11864.354174749442;11763.431923797176;11890.07149481191;11892.9248712152;11913.325833801777;11981.419927760155;11845.272676650151;11796.345273475756;11974.44946080695;11839.09588475373;11897.8559932366;11704.34408635425;11453.585144349276;11262.953868855588;11340.965025393292;10541.027324678522;11289.256374784341;11255.919422903851;10894.814971236432;10620.93754846785;9309.64504437181;10012.196753647258;7880.271155892812;7512.4078729774965;7322.041691385372;9275.229299345072;9196.14813685462;8832.676679217846;8610.509883995059;8344.283468467733;7099.025788267932;7892.132440432694;7735.1414067905125;7419.280083459024;7387.181877388134;7165.308043331724;5962.290447470837;6024.746673416429;6487.333055180313;5550.576664755773;5742.415165484087
7617.323991005472;7443.890174524807;7315.546527404961;7204.675988954204;7495.677511774579;7600.138140550021;8044.221244150865;8112.156649654943;7645.10116715433;7697.896233914599;7745.345358168072;7843.82427753196;8327.649329117052;8276.285904925484;8457.206866249988;8458.872241607536;8337.980941823149;8415.535330190141;8451.266983630361;8597.553126993334;8620.417114346477;8705.0629258738;8794.534029596376;8947.101986348902;8961.270761036121;8951.634630939105;9068.203123378637;9238.94373302276;9411.521253192124;9733.454476452109;10016.946233152601;10158.718083382162;10263.862465724644;10785.054296834525;10771.850971525007;10891.67951773696;11041.860474858917;10661.356310954874;11115.972985139364;11254.773633083707;11326.703629222306;11423.542800674582;11578.899270222337;11678.805981394657;11761.218920854342;11782.026780815184;11624.455657284481;11516.084752572406;11377.920825665762;11371.635874426498;11253.078189063082;11499.916007531916;11304.73225405714;11257.11245973291;11507.857675563664;11628.942291738731;11406.717266871696;11274.546390812753;11249.477974130463;10690.708119823481;11081.922875288452;11072.930795562155;11249.489243832246;11062.756204113317;11124.917400533159;10877.808401209637;10604.689159607879;10886.902968377955;10981.135331107584;10683.205838194419;10629.2261751574;10216.313256870297;9824.185768191848;9829.166273062212;9739.148009138953;9735.204790860647;9741.455672239023;9731.836175350829;9782.731424210237;9719.760622881367;9713.598317415814;9712.6981754656;9710.071075183838;9709.311802756176;9708.317763833882;9708.360040123192;9704.468050147021;9706.315675632712;9704.112670538561;9706.60312769296;9701.939165261836;9703.47260226593;9701.852368357035;9704.513466945606;9855.273417033004;9942.151007234734;9803.794530668365;10241.315484963416;10370.164905378086;10344.255696821012;10170.057001815952;10112.68036607136;10012.505564220515;9963.14620950124;9952.953471301335;9940.514981018223;10088.649911285902;10026.039953995783;10065.18237402786;10150.294194968592;10172.615113607673;10331.688427856945;10517.151851420134;10765.044869686124;11061.279919799064;11136.608722983136;11303.03322419143;11470.346616206745;11558.864642311131;11625.450637232992;11845.831176076896;11982.726941255332;11917.578444543557;11961.216684295192;12043.932217656176;12144.069247155017;12158.796257320966;12070.303008936404;11967.752325752412;12124.274981443868;11971.84064716004;11874.703393019674;11720.842213111038;11531.479601998526;11394.43111494726;11187.46570755804;10908.846371137526;11227.088855558435;11144.796734371674;11086.909634399279;10775.404214423204;10226.35747187179;10554.566222670852;9810.84543105783;10150.033011196552;9647.626052235624;9204.683861265803;6939.855047972179;9072.486458846957;8709.680628918963;8483.024542438507;8232.953728435856;7945.88957614664;6693.297167924341;7556.514718147279;7365.4998566023105;7009.499238562898;7065.289935252221;6737.41705274337;5523.598491281612;5605.250516710762;5907.069326434531;5033.150039387335
7362.604009062651;7243.776514331031;7153.355167007364;7517.558805912123;7630.325594818975;7863.100987451989;8180.653903076339;8369.444794210558;8369.106004774567;7965.276942406376;8345.81890311445;8374.196344062322;8259.34432652482;8670.771597036626;8597.493825097368;8457.723610125668;8409.257929863932;8429.339421989043;8552.764767546563;8587.400335147515;8657.861260384776;8720.334513204274;8879.92100618158;8891.3692805145;8911.527889268396;9023.116720513764;8990.619559351162;9321.446928691854;9498.341942917988;9656.465425847364;10040.900333149279;10306.510492533831;10490.306689711815;10553.524097794692;10887.744835596975;11098.620264894857;11005.156760086236;11118.828366751855;10930.015826906652;11163.279721917745;11384.736003076825;11411.804194509823;11525.26210537515;11704.869965695365;11495.88649408528;11436.118179633664;11599.213253179558;11266.343487363047;11344.261234868387;11113.18295436013;11332.737414402807;11397.021591663328;11359.313179443085;11103.122758212703;11308.729995810994;11333.862008863078;11425.277904547267;11185.507167959044;11297.542437414078;10974.781017946894;10596.21195570485;11030.455293250947;10946.525097135967;11113.621757568628;10782.92879336303;10815.724773022554;10417.262260152664;10791.778436604396;10715.95331162924;10727.556021060667;10330.719962307616;10092.454805191825;9869.410025713383;9739.07993444533;9742.52324523867;9741.668585925589;9731.49709149673;9734.572439672906;9726.230892494412;9773.504719657609;9714.520398241984;9710.511707229147;9710.664915405843;9708.157846719365;9710.464236939395;9708.671720459493;9708.420577272926;9705.481955458687;9708.26614850634;9703.545732110848;9705.223671448399;9701.995562268989;9705.089030637082;9885.74941848085;10022.6935646475;10190.30701164862;10120.230383268008;10028.44419621343;10259.326555922362;10367.7558125428;10408.127184035158;10173.287896488026;10260.826423607294;10196.745894968823;10075.753384036194;10206.588805288731;10001.456299539946;10071.067251593693;10116.293004947544;10180.636385593527;10282.21620793764;10311.165899842978;10424.6150441926;10607.451986149335;10753.990336207979;11016.490591931957;11239.61155124371;11567.423659605949;11655.020152682646;11808.639886170775;11899.63157838817;12059.143614153705;12129.49123651706;12235.66116211734;12372.618857518984;12397.644746126596;12279.148070753447;12127.35650417404;12226.930643018204;12250.643803624407;12006.378670809103;12044.52680923784;11698.178791707338;11789.132417654051;11597.777063688569;11376.07960432368;11328.178051628733;11348.49000894704;11248.793520380012;11265.751778117614;10869.60444833183;10792.555013039175;10522.831569608014;10613.942650661018;10457.89037181353;10161.631635350092;9744.313566500336;9174.339781182436;6759.8081198753;8590.996260686377;8386.92876007079;8166.7691527156885;7916.610518418726;7747.618740194578;6294.0715140510865;7139.818356306448;6888.977382917755;6590.7639738605585;6540.406493983271;6248.100746598692;5151.976725683554;5098.287478548792;5275.986705148188
7169.836628813621;7102.609437565691;7497.463522126033;7461.805999871663;8124.610817680142;8138.557172670514;8397.039745422902;8699.587667917232;8686.704334489194;8417.456863368272;8773.283347289042;8758.827414090912;8615.716130138924;8646.488003769613;8698.314029450532;8556.61748954164;8487.735682577837;8526.378765482106;8576.729256316721;8623.080343619957;8668.069701673321;8813.750029826882;8826.794856781711;8879.730358575827;8879.03201705849;8915.654484452916;9058.466526432065;9421.641697102652;9620.208369472952;9791.44988378754;9954.354988588999;10301.921555890523;10613.762574704499;10783.248141822929;10944.085947184882;11191.789136626361;11266.966175904407;11402.795298356166;11284.205314130842;11294.798192157567;11369.444747897913;11341.093089368296;11462.806594475984;11322.907998002342;11492.820853746165;11314.146838099336;11370.173604335094;11245.265358255496;10999.084786078496;11319.311434463965;11352.550134157631;11438.703110117927;11323.53059992738;11213.628121053724;10938.448532526581;11250.443483431896;11404.124630321148;11191.253952448697;11045.121041572023;11117.77519071173;11029.436795083333;10498.946592348908;10964.270711214282;10929.90842628399;10840.20847762478;10512.020400658683;10260.883398401882;10472.349343952203;10553.271945940749;10381.539343116034;10291.828491859287;9959.07002189153;9737.715950321588;9745.342011445053;9744.593741264074;9734.023945668017;9735.663276304782;9726.951067991296;9723.143856635863;9719.11925623269;9767.14191602253;9712.7812106288;9710.007242141655;9712.490970996518;9709.923673388676;9710.979390177006;9707.574202007501;9710.963760546285;9706.22968227194;9705.749370240774;9702.77085008542;9707.491992511157;9983.07046471161;9994.205765245777;10225.12390254387;10275.77809643258;10348.617871554794;10339.219404320113;10298.113470509208;10356.346405330445;10383.75341078548;10393.013045000167;10454.49599744783;10297.296456285381;10459.66083949235;10170.598094821984;10177.052366165582;10083.141348630423;10193.001464858855;10287.801683469399;10290.621085686409;10397.281545048903;10518.646649486855;10578.081537133767;10767.946137780975;11129.768669185338;11478.919252983575;11678.796024647869;11871.400845279397;11985.630189404576;12103.3701608581;12303.499443972425;12383.51970820989;12489.987779885407;12498.301800713336;12513.337502880444;12317.043883668994;12271.804776304707;12308.269802785017;12244.009921255885;12171.793897159507;11897.259293532337;11983.837915448334;11927.312880424168;11763.373102036709;11649.836650253746;11482.892583920071;11376.165368484828;11239.418756656043;11070.486312585705;10933.79946047454;10822.960506746578;10827.007567204488;10592.820023764543;10427.293073607358;10164.898552773306;9974.504654586839;9393.006456989828;8239.228991449643;6565.2033721543985;8373.90332180267;7745.739454318688;7756.507561184294;7464.764782735237;7418.976465537554;5901.73431828125;6852.313632572362;6499.785285552108;6071.796729452496;6048.224893788595;5756.098019695991;4805.760692274646;4579.323577779324
7052.277629816547;7282.519095990795;7353.073420074591;7913.773932813673;7947.160852490587;8361.66099222581;8475.54497284412;8627.669751431185;8746.091998085434;8871.2985770407;8921.994357967931;8824.123544344791;8786.690528486979;8838.340568590636;8783.93121744956;8655.716808379184;8580.346748420456;8552.900123831874;8632.367231029388;8679.768606135422;8744.987898321284;8808.39497401983;8864.867187846536;8849.61522836838;8927.781240929413;8989.682816466735;9227.279601859485;9345.432784522993;9841.51205389524;10178.550027879399;10215.574459533978;10294.618834089331;10635.091096892149;10884.457093679564;11095.221453274808;11204.716010069533;11344.596653076307;11355.591409817578;11314.976952226396;11350.470873499125;11274.201437239386;11171.246119769196;11159.861929327108;11218.780118400926;11169.197236091346;11105.946664307532;11188.059940626346;10886.439664109297;11203.098976512683;11379.65067293061;11458.240912563353;11523.1184280294;11425.17264379828;11204.590089252626;11172.630656001616;10836.264992780598;11116.869196058255;11091.02263309482;10977.390431747117;10888.762565351044;10871.789415080508;10932.285328219561;10410.6861715362;10898.869502945865;10800.086357242642;10528.589186563164;10315.36549862787;10050.111071801402;10207.335043423827;10206.55451101674;9962.988483436173;9796.326328327235;9766.436345166578;9743.913545990301;9740.399280612648;9742.695168092472;9731.32117180304;9729.11754347527;9722.933706140353;9724.234659217764;9718.069242239697;9762.83585232701;9715.491664908339;9712.406064954353;9713.068909114096;9711.427751232713;9713.58649355211;9707.729754120617;9709.317174382737;9705.108971249392;9708.899929797142;9882.221236305122;10021.634012182512;10099.368920336663;10104.647740892338;10221.47217479979;10173.019838801414;10261.474333608377;10360.553790307578;10510.648647312264;10525.91330781889;10583.660937794742;10580.803589923631;10505.128874116046;10332.453528469341;10445.41361482412;10300.832742450566;10140.410948357177;10216.388745408742;10394.459700949155;10409.057677915232;10440.129711815513;10513.204473557333;10816.683225222576;10894.025902496243;11004.67821042383;11545.2213577769;11820.912977622123;12162.36503924596;12188.869163596126;12357.902800662407;12519.101881484465;12550.401055610415;12702.406114696481;12709.68112993133;12608.553428217936;12508.330393648037;12319.34010137113;12186.16387321697;12272.950710326506;12195.44176964714;12118.462467355344;12177.247070227142;12074.78043574671;11998.57874165069;11801.329514235706;11558.338952133196;11459.938926667037;11141.452898890246;10987.682111749957;10721.05219813565;10409.107875429305;10765.854845697882;10529.421337351345;10206.395947530433;10009.293119528145;9573.295477451102;9167.548572719377;9021.921917645708;8797.385569509432;6353.280955530464;7870.076955962192;7749.328346801357;7388.894407730807;7195.043047562381;6701.471455089771;5533.190245949411;6351.63505586241;6033.668644499375;5590.825927995514;5675.816801962422;5255.422642991577;4503.0298561328445
7072.579347537442;7184.813089247254;7507.650735522125;7806.35135371008;8253.831489269382;8537.65702048015;8791.352267720711;8819.57597610589;8812.143096380969;8869.127543700011;8901.167770497112;8804.281987475366;8623.436823710475;8717.61944135081;8747.878216131452;8726.176703362242;8641.43779845005;8688.07155800423;8675.888911020389;8736.74827705311;8803.180642085168;8863.570651599865;8832.674830712214;8876.240719751982;9032.562419010057;9082.314303315448;9360.911349568189;9540.01327297945;9712.798542516699;10070.32129345194;10438.695548290681;10520.034447192655;10574.333430044044;10887.437269363967;11081.974798236035;11173.426081057085;11267.185354084566;11222.641854326805;11154.958479664165;11111.57352817076;11207.51087393592;11070.57857613626;10919.965031558579;11034.300891404873;11221.698686641023;10849.721486035003;11053.051453566055;10730.042213392513;11199.371200385322;11388.929474269797;11393.228107145751;11425.818305833996;11373.43087390525;11323.351183001876;11130.989314939052;11061.291955727946;10721.866498624524;10910.877527602403;10847.942947142274;10772.05125365507;10714.41695921816;10758.41200953085;10747.538464001693;10325.996649059784;10606.744877448931;10485.175856568123;10293.665611609355;10237.252155087026;9946.257209976557;9939.320556278872;9808.954123480751;9773.918766617157;9746.187352683017;9749.730382246784;9747.795636267536;9735.968159272405;9729.107956814547;9730.147825173819;9728.374061547664;9722.209686457569;9724.104878031278;9720.09584358376;9757.611899035142;9717.074761235257;9714.923181597398;9717.08916967106;9711.928583164081;9712.556613593591;9708.529161328177;9712.264174862576;9769.387947844189;9850.637188888002;9867.574238821471;9844.419385196928;10002.96976988366;10013.61480472023;10235.012996709345;10415.00192437031;10359.82158115046;10510.966816093365;10488.178492407023;10471.249351609404;10486.11233046934;10459.054417732226;10571.06045186509;10473.549921193375;10296.544953473618;10196.541621009696;10235.720295306222;10352.787354467859;10509.025999824826;10551.853101207675;10746.575644546978;10669.424298300404;11071.325342093354;11288.044683550863;11332.322952127386;12069.301861455388;12180.935328949614;12493.108393462953;12552.836833113659;12600.647869968776;12797.189223709956;12740.487307645777;12689.643150954544;12557.745812215031;12505.7274378933;12353.606550764864;12326.145016959716;12036.548986909325;12121.23911761458;12171.52655489953;12169.339381757229;12076.95101606441;11970.030376187522;11895.306552900325;11691.736495572495;11501.459034500473;11145.131003526432;10899.831465839172;10935.585819124342;10679.179246959415;10075.925321663646;10337.300491672173;10101.850641610603;9788.179645520118;9642.576095012024;9333.783860656295;9208.672368263004;8195.305224410768;8240.745443832471;6135.412124786223;7450.233045418697;7307.550597426743;6956.242925119416;6630.912052814226;6310.9119524728785;5183.939391781248;5929.141888562607;5481.931698062216;4978.702370826469;5010.866142761189;4632.356370813729
7290.26092103222;7106.900741680299;7493.005907598798;7570.663844201575;8103.006825231846;8201.520941108938;8588.910592445012;8799.822158377377;8783.525303655919;8770.290219850798;8841.422587905414;8757.647005413764;8569.406562884571;8366.72262266497;8637.304066542863;8656.69390003728;8691.650940264815;8670.694164219822;8710.732887583676;8772.124413289395;8826.970917004775;8880.577975512268;8899.75665921354;8942.17399678921;9045.588342520965;9311.809150033572;9453.088785594537;9598.047058968896;9636.511323723138;10034.61258914528;10283.87730865872;10446.252232596282;10679.413442409972;10917.053904286899;10891.64092956785;11042.5665704594;11072.033675501061;10827.173447903566;11079.639407097828;11099.87106801477;10827.280556898979;11010.982054840279;10681.51464574971;11171.73584241038;11093.523037167965;10999.595884879607;10557.987787289981;10966.2687921537;10956.582315482869;11140.603983697623;11300.634170507004;11396.41263626773;11272.631212294644;11125.634382168602;11086.239673160966;11018.46142309735;10945.545962490029;10618.247499801946;10747.554518946374;10612.911068929498;10478.318811963738;10509.127253195646;10635.010889068257;10485.493494818958;10238.049692669021;10275.756300888203;10027.81654431043;10067.82158716139;9902.836603318083;9884.265327938527;9797.343769840627;9753.576666274228;9753.12487638478;9755.186455015577;9739.598551866384;9735.237895923605;9734.220374237713;9728.58388507922;9730.523336265247;9727.724738675955;9722.807909492927;9725.05005779544;9721.399303653357;9751.28882975478;9719.060724345072;9716.861938614533;9715.059031201388;9710.255129577858;9713.66929544738;9713.87473649398;9721.058152013611;9880.251608072966;9769.975304553802;9984.321825540974;9900.87077609152;10193.037683734707;10274.79015040971;10436.388647083448;10316.751171552256;10462.051671125235;10352.05492931771;10385.972023017068;10483.836594479362;10461.827040131102;10497.857836366282;10420.003959816513;10400.484014307622;10270.434281347905;10292.138540239877;10346.045170071615;10493.449457229413;10649.68452771633;10883.15734066338;10971.831562511212;10841.691343326995;11410.800306202455;11610.955326597163;11721.001978627988;12051.70592518707;12342.984892390192;12499.666162300538;12640.02504009075;12697.597902012938;12655.753000380199;12637.183058826271;12454.661170719555;12374.248949351066;12381.135298497295;12280.235060194878;12168.451061321757;11861.70346764457;11968.971688143793;11816.853899506106;11983.744939073666;11860.369256860391;11683.91612837954;11685.011778771317;11365.9300628632;11332.993217580217;10972.437434868974;10600.570517751803;10597.179891294618;10426.12609396244;9734.472835754623;9953.045366875303;9652.98478630196;9410.988338131472;9161.522658664031;8848.434249579805;8415.257566166485;8139.201934853988;7521.109932419014;5916.100381943851;6992.246008368359;6792.990574159959;6405.957265586699;6193.393557217435;5870.048431241846;4885.554884912056;5192.717461608728;4940.838970595626;4359.328862390456;4445.87112169593
7534.1407909395975;7575.247850860457;7141.065825962217;7394.252893112446;7608.799286448314;8247.51518585502;8629.978954858016;8833.144396976182;8785.580504304187;8625.626137872037;8764.000925614422;8576.72162442424;8491.27102200858;8048.930585047406;8179.6442806653695;8321.913527825134;8459.930941485796;8603.248155028443;8722.989723169652;8781.20789947749;8858.611691927876;8993.013482695838;9001.190974670608;8998.768472849115;9108.904108121664;9244.590554613005;9381.192802780013;9308.25087697585;9536.429039656694;9731.066888281926;9948.268442642679;10350.11312127683;10602.738791182004;10615.775829504732;10923.654620778092;10807.963839112643;10871.265762587023;10577.480766732118;10872.59356462898;10751.170928273426;10791.15217775857;10436.058030160468;10879.059851059686;11035.12605916179;11042.967106246328;10444.875602432225;10834.890179214533;11034.988613405607;11223.227336580283;11344.101540460251;11331.957323384173;11264.759602758259;11198.225398485392;11094.150981215385;10977.856320481518;10850.385543260698;10764.527947804494;10759.454777541534;10522.141319779807;10559.62108265953;10385.627869573116;10321.482250522062;10296.892746847432;10225.124150925858;10144.657702828259;10152.399289553927;10039.459924217885;9949.522381233106;9915.035580337695;9876.817831652246;9837.532477105324;9795.007824006429;9782.23719175392;9755.606183054751;9754.764959853157;9748.492506690105;9739.561532537562;9739.838639961297;9734.465392240203;9731.02654438922;9730.062138765374;9726.785619947557;9727.272758836825;9723.898441166555;9746.959355124545;9722.146040531214;9722.919688156708;9720.972670417046;9724.017120955057;9722.893998489653;9735.450968771995;9745.447633963911;9802.65419455538;9826.463160287494;10114.414501734092;10046.596247302274;10268.768742788412;10150.387418853636;10261.184443477388;10245.14513173941;10270.21546058392;10375.911427639734;10399.91188318727;10493.230826916326;10434.13805573035;10419.204402195133;10323.630283182865;10443.4999506462;10365.82908844787;10379.529703945467;10434.883003998668;10628.749525259162;10896.846034269573;11065.582134301232;11243.10116574774;11042.082289340346;11598.468738284395;11891.818049609716;12223.344106249904;12366.81623365403;12261.867385702652;12443.203039212054;12565.932525909233;12624.788787348942;12484.622706820548;12318.895154474994;12267.153910439029;12232.238964634624;12213.854164890483;12061.059450382025;11915.312062928791;11654.256205180278;11432.242036107076;11799.61855442973;11797.874099550314;11706.112720337798;11384.738085442896;11025.56108419185;11154.29464301837;11071.818012214782;10626.380526005458;10236.523264649251;10167.625346329383;10041.33301489112;9347.510813315042;9571.065029133726;9157.140349593898;8983.77334713475;8687.812041111465;8428.10587983011;7807.606873246029;7333.749473604469;7314.642802266205;5704.694799217611;6441.749005966577;6447.818466252166;5937.7549097563215;5823.07220150519;5391.789258468673;4597.945624841884;4797.297660589257;4318.944286866744;3908.690850211189
