1358.2911505664579;1288.5832890886254;1260.4867711862844;1306.4608166035964;1331.3718568082854;1409.539618183615;1408.2917927914114;1382.9492382059407;1435.5026876186466;1479.5230941305563;1550.8905925057343;1497.3216340442132;1560.7686818942566;1528.6711179142694;1618.218513883081;1642.6999170245645;1641.737752611788;1508.1076157038742;1444.6253162553003;1305.6569285559467;1322.0984057520786;1239.3811500460492;1285.2644592425122;1326.048740600264;1404.624405559025;1482.2314258659671;1355.7887777010246;1010.2876653300609;1217.5420975989168;1178.3153522403136;1000.289521216655;967.8502345075904;947.4502808179573;1091.454969231624;1060.7251872166144;709.9859550951146;707.1142065336676;701.1494702960963;705.0994123618902;860.4510907427239;700.6029653718097;624.249376608202;612.8962576788476;620.5112403651342;712.3187385942174;655.2277433728709;766.9727966181431;556.3451441668226;492.3066616339088;475.4705213832958;493.3892636104406;507.33180191461133;459.6753624379021;466.3280384388554;466.46944185037955;490.2278812515169;489.82813417953685;497.7511819967626;509.11400511728243;443.1630796135746;462.97342114448384;504.17183395001166;595.6407363888329;603.8559902636725;745.1592851462278;768.8283516894935;847.1793192984783;967.1559664731612;932.4326523864647;832.3504427662165;705.9398676487963;753.230331697011;851.4974454425724;847.3496358406796;969.1981255930286;1030.957367607558;1192.579582091847;1034.3688615656447;1116.919810633432;1117.4910586347023;1065.0228370366422;1099.1958902792885;1228.4289667817743;1365.3559313708083;1503.3712897966989;1563.828313019878;1743.9652203045334;1994.1351294709402;2057.7109191534682;2002.5812673479695;2054.5662280521974;2081.935203602964;2194.4169226516124;2153.7655913859653;2149.2974205541423;2270.1336402053685;2135.308242133179;2317.1035799705187;2605.9601678541176;2885.5092502063835;3052.545388404532;3051.301684728711;3010.178161126306;3157.995541059384;3242.199558461307;3278.182135731532;2962.172099047574;3618.3387629705467;3616.29193873197;3942.9230673276643;3851.5528710329663;3640.084124687266;3361.0171226452076;3446.5403703704387;4088.305938468504;4304.112123596008;4497.839864295432;4711.4431818924395;4569.575305572155;4519.837353929285;4246.8462377941305;4242.913622273016;3984.0148223159686;4512.4504653143895;4466.096543405235;4627.929446690461;4856.623910295727;4927.468416093451;5059.712226730075;4952.118029998943;4496.10517545763;4384.412157318546;4348.571969096727;4375.82989047734;4159.080443234925;4373.870012175897;4069.7746820981884;4221.44078134291;4288.71874218778;4577.49019917404;4477.641269930527;3683.7520354606786;3489.557359432102;3726.876277581596;3813.2738325416585;4057.9954392819527;4142.054281486484;3816.715524055332;3772.3647853159473;3330.066665961439;3235.991622076128;3048.3523392526695;2823.2587731803524;2860.945945490769;2632.746687335878;2514.8630897659286;2683.879708873492;1944.506229341635;1889.5682088419462;1928.707210612065;1849.6533778186695;1743.7598408592403
1439.8096193325791;1348.0352881511672;1296.3983824918469;1288.037822259344;1314.4083060706557;1335.4835270187823;1360.41577105319;1413.3214282035915;1487.848227637508;1566.605274172217;1636.9612813480753;1590.5728661877001;1529.1423913720264;1587.0187862825069;1544.8544547325155;1624.541194698204;1684.4416094874541;1707.062572905208;1483.056000658351;1600.4883804568763;1366.367732012587;1419.1957860474204;1351.8629713274186;1433.5062448107628;1384.4296484391753;1405.1818395647679;1144.898876554268;1409.8317123421057;1478.409601581253;1259.3266650386313;1129.6167714293388;1089.06881772087;943.2325243094688;831.4203467368989;754.3480166008208;766.6907895446134;758.9421659410423;753.7640071323644;970.6427587424891;986.2717902880436;790.9430461295642;719.5197093286329;663.4282927431341;652.8767283603675;690.3308377101075;921.5388114706939;807.3239523626826;684.7489133079798;666.3084952004565;592.4302997013301;630.8921657673518;578.1484077347181;579.0278632762142;597.0099251824972;577.9292042131583;588.5256416817479;648.2129832887886;754.6114334110771;701.814361807174;805.8262814883497;604.4658695152066;631.1942460900505;621.3810778785291;693.1378240990271;691.3719634298623;916.2548260067024;984.0299551853859;1090.4248272634686;1208.8088809324122;1080.1448474034046;995.8673421756762;870.8398279222188;997.1567225456338;953.3667743836722;972.6960677436964;1106.464233579908;1208.8317082168246;1202.3544770223675;1312.3071802692039;1312.0654191776098;1468.6971725050716;1391.0022650416295;1331.2877590365283;1416.6132833586553;1538.3343448486366;1645.87062535325;1740.349372979701;1922.145452506661;2054.931606950402;2223.2654378057678;2248.682928716593;2307.3278819092584;2376.200668030847;2515.864351449747;2421.212572448423;2539.527804153542;2526.716020046918;2538.242828000959;2497.121203096034;2942.958289702373;2853.911742158738;3117.1162754327825;3251.8755835839183;3373.1256173272595;3501.686876210316;3546.7661375419384;3221.5484977500982;3268.5179979645727;3674.3447763363647;4042.1787900094378;4058.149199051907;3802.2930724690896;3533.5399535017095;3716.2545550915074;3829.3821247967426;4549.7838742137865;4600.632602699425;4865.98511432737;4888.518190032539;4611.472045888957;4532.524464736102;4336.0099993383865;4282.562470576324;4096.366314243811;4296.240534026561;4520.171183351382;4754.232893119323;5135.864949167684;5056.055303673432;4600.398388497542;4466.584557860329;4435.16288020643;4567.556462059947;4448.293596779407;4448.635773550426;4365.195215399952;4254.422077409823;3987.084584430164;4602.282897899726;4575.7242629894645;3773.705011244363;3603.906432837084;3818.253351142197;3840.7530864671153;4030.0511595878197;4168.130310918978;4182.271886127285;3995.4209365520755;3609.9356004827823;3500.6503345406263;3327.456117577869;3162.025329396699;3061.592334875043;2914.8386473514947;2760.715708668863;3047.6497974765525;2409.8731105418046;2013.535826258042;2165.1928343529144;2134.4248613755353;1983.3079320891338;1733.6634912098762
1531.223132627697;1397.9849235745314;1357.356219813173;1366.8158631651395;1322.7680588501344;1382.1717908948876;1439.3653352106976;1453.4899933207626;1521.6271770906278;1654.3048369437256;1749.338113790167;1594.6767687925721;1568.2414290153592;1564.935772391782;1609.9423999904684;1567.4371873552536;1682.9633496292709;1732.3485619144085;1742.9204064960422;1535.2777282635088;1651.6197511417322;1573.7410968376998;1511.710061699776;1507.3190700365321;1547.8837383598038;1422.729356143589;1283.009313211237;1469.6692811617277;1504.8755757749404;1374.1697972652837;1283.7250965971402;1109.4847339802836;955.9784566271269;854.9133910000564;823.7855521154688;818.6715942012638;826.1393863563203;913.7049399613334;868.5825080736472;1045.926426146962;947.8047109882928;762.3163297278506;712.8140632123655;748.2749080260387;813.1305634246369;852.6988514021423;1010.8831949869709;887.0786916908223;751.3488073032308;828.9441459539703;837.9780940179912;752.9623572647583;728.8481647993872;713.4415474764292;831.3747019434095;721.0125659644796;900.2010734491682;827.9940646568907;1073.8299367897316;1048.2912088986695;875.7647022253959;867.4338821804954;822.1188415731281;800.9874645214736;786.4123743188288;817.8485072362728;1095.162334450246;1206.9537633814298;1353.2707040082696;1447.9594383868089;1023.4546255774749;1231.53712737138;1244.6571682878957;1069.725708416387;1059.935151568031;1138.8040918003794;1286.5104795658917;1413.6092100678306;1429.6562373160332;1667.9754180609316;1537.9816356729907;1708.582198130288;1747.2562176622587;1991.1320640719932;1869.4164306384164;1780.8192017480642;1791.7203202441933;1883.1577747024548;2024.8286126522644;2195.952274545022;2395.7131778734647;2486.12476358615;2580.52226676846;2634.2387009971335;2814.6430187216138;2737.8951367210357;2958.1164102656494;3036.220384983624;2802.383221616583;2675.8573144765032;2881.5522295645433;3344.3792122990544;3448.159286656027;3526.684804635779;3745.7261649049187;3649.016562277817;3435.171981661848;3629.752314599813;3923.6828639337173;4169.745747139594;4212.525978984337;4080.9053284601614;3701.4261630068268;3901.0535607760594;4131.811532144667;4250.779683929232;4589.690639791503;4901.24601935828;5029.213564598748;4882.405030359919;4735.808807279452;4690.897845106324;4460.802531238007;4196.306712806304;4392.967137629994;4559.326529729859;4932.668947830299;4876.956152876232;4616.519016640111;4515.3344185801325;4544.523078101322;4609.19496377034;4627.397807791144;4675.64109029188;4756.695798641857;4607.371759322034;4230.12964414429;4171.26900366898;3899.6840902222175;3810.4629189611087;3710.6046918562897;3957.6422349971135;3874.753686117826;4185.85264640489;4176.695778772025;4324.6814690113615;4298.875638892812;4042.732898854384;3931.9232051611198;3624.3896073708456;3466.8249979059165;3364.6118526115642;3176.823715594479;3040.296554260315;3202.2827778733918;2675.8455824986177;2176.349719954167;2136.967421722582;2173.1811557970714;2254.604233552881;2176.3277895062183;1892.7393297223607
1618.455891389598;1472.9324052622396;1589.1382897717895;1385.072727526399;1514.6760868301153;1403.305227815281;1476.349722688491;1633.151247937938;1659.4935159035049;1729.7265858850433;1732.141452847054;1677.629791179127;1693.4589936165557;1645.5052334293587;1602.499365900022;1661.4348853288848;1707.9754010448014;1821.2675947284542;1741.752742057879;1790.5347996740375;1892.5335052631235;1699.3872101465913;1730.0784560749698;1658.5941938259484;1674.1243918855562;1479.6036712725681;1510.3260949320247;1433.577186886565;1539.1130146800824;1522.1636223782043;1511.365134913507;1378.1329416924345;1134.456297968491;883.4714156700611;878.8850041261071;929.359936921026;894.343507609974;897.5374327236946;1049.7031052706234;1050.0596404753946;1060.5640687035534;813.1692821008241;801.1791369782986;761.9413652445951;895.3180959789315;1043.3419676841459;1139.484986991124;1047.7321188447827;957.5806669475173;1100.7769967627391;1042.4358581999;982.038558415954;862.5128800227958;951.908525768999;933.2914313793226;897.4888689498457;1013.2383106812817;1155.7568941597256;1032.3297005074214;1205.4673374561694;1265.4828813858908;1038.7692235794184;1082.6565862080643;1027.6795004182222;958.4154439120289;883.6844321025355;1041.2959470134087;1274.3430863300114;1424.8963821206262;1285.4064806774968;1471.2727261592163;1479.2090930491622;1492.3763494045006;1256.4359530765269;1166.196421338594;1160.5485554510824;1419.4543151589642;1506.4480847574896;1632.4978709845464;1745.0646454345551;1947.6425158662105;1824.5948500693457;2089.22163240552;2194.35435706086;1997.38606554146;1955.367426224414;2055.165089786252;1937.4360629373687;2207.7213772476234;2286.6106690701245;2449.2844610596976;2665.1245797541724;2771.0315913868635;2854.553410036233;2884.605340105829;3072.9682940349376;3180.4010081748984;3240.096562355294;3104.3669668508983;2847.9775813446404;2954.8907334208598;3096.100119901327;3537.419009862868;3722.753940152854;3902.127981585818;3852.769046026905;3648.7272052703665;3780.2246307165096;4045.5240848284966;4378.355729253943;4627.62027938322;4091.427242657699;3836.9926127350973;4162.904579367601;4334.96767886897;4617.036048863865;4794.278223758512;4976.183181364898;5158.1700429920475;5091.614320794059;5204.017129595439;5045.338260563398;4622.757297989244;4300.884493983169;4486.489586936213;4705.334483354906;4916.529910522195;4862.458286017718;4801.712980147862;4668.423949729304;4604.8086765297285;4702.438897062736;4859.3847191718005;4833.333017416917;4844.671901585601;4568.45885279477;4490.099604115548;4162.136062103672;4143.028962650273;4056.0008985988543;3929.718577604769;3941.8458989682367;4287.524022996172;4134.7488383038535;4490.052889823694;4470.129721355968;4363.171051345277;4231.976885276992;3973.699264553851;3786.542303202099;3746.8197695337913;3473.490610326996;3430.534300905517;3090.5761317185124;2815.9170306250962;2369.136359415729;2496.246879767921;2260.850682582104;2393.5465761052446;2647.2456239050707;2512.528341235042;1888.897807608807
1672.5694551802353;1682.344624053815;1601.9220991070188;1508.0378373559379;1678.384640395927;1586.0281413318007;1629.7967734426365;1641.3644200742783;1910.2087845150418;1681.9151989757256;1696.0073528298753;1758.1471385834202;1801.1750564403555;1677.2664731606656;1638.65459378778;1642.4224684019327;1690.4991959972085;1797.0679630300774;1947.2942227610292;1999.6292413908923;2028.623234877915;1953.9053625466831;1842.968818030985;1919.9299114963378;1716.967380287414;1654.814832927731;1583.5973352621422;1552.3602868290109;1448.9025699015892;1495.013595841312;1694.1186374530107;1585.9557262017006;1068.2581687554361;940.0990883619093;993.6898507991104;1015.3967906442472;1116.7358391465777;1004.3137044018845;1041.5844680608384;1230.1462546942785;1014.013081293122;1136.9029103089024;857.5208050718511;832.1567844916599;809.0856123346603;1027.3091759054291;1181.6241035446183;1183.6928823050703;1210.728090629707;1265.168399255886;1353.961234715889;1065.2425400875136;1150.5690735394605;999.7503437589085;1145.0834804923002;1140.5559889311744;1125.4693199881035;1366.1368066075238;1263.9709662288;1288.2414368484933;1346.462355631449;1392.163916513111;1321.0557618750445;1178.594041236931;1052.6202372812854;1040.7749817908284;974.0718619449453;1212.741233952118;1341.4347861136475;1494.3130853569337;1533.1903395181307;1808.8367500422955;1485.0537888375165;1242.533672860981;1289.3923069929592;1424.642142476363;1451.1074017267538;1726.0748445749805;1797.4913119239327;1952.4242490578163;2131.4529464074412;2385.749967050746;2102.48094413175;2321.025846974925;2332.0521421302474;2331.7568729330133;2258.5025451912315;2059.9849928929752;2091.2311061840164;2375.9019724323934;2717.3905810473743;2720.2338757861908;2949.504618029079;3051.673658269883;3193.2455916582494;3271.487286950778;3465.2553957528107;3442.0970049458383;3227.8386893348943;3150.68947453494;3019.7383069295684;3328.351203610694;3336.1595168524263;3858.5150939219293;3898.661051617386;3828.534510480372;3904.5888582098023;4044.3632722267985;4177.44194759617;4370.159357900217;4235.241773369187;3973.8760160947613;4237.44354250196;4305.902749807386;4511.879259783373;4699.178840762144;4950.997340407014;5070.61123395489;5366.072326611018;5291.886950267635;4749.080657250902;4497.301143224365;4403.325099177379;4629.952007251765;4570.415644045226;4747.35141965991;5051.169049258822;5025.761193363236;4824.261402318029;4753.641773311924;4695.079014548105;4858.140375308561;4901.2383263687825;5018.175415063592;4965.872577662744;4873.149869689936;4644.554419935443;4474.5185692591685;4387.4880652306165;4160.411239820418;4415.340056005255;4452.13652533733;4162.037112527328;4553.606276621449;4456.871114633593;4667.748553510766;4489.411998934537;4253.777890633424;4212.693416933629;4002.3038161760805;3683.633780564328;3434.9328791743455;3152.0574940701035;2864.0855123660094;2589.40056862854;2661.635647644669;2384.2822574269812;2500.8632260053573;2444.2285359960706;2114.9258077269806;1872.9937175132518;1720.97801767879
1811.0060959367975;1765.428956090931;1764.533844763534;1795.8720810628884;1748.0648430045703;1838.927768038483;1919.2325484248886;1873.553713215002;1647.9060069504148;1526.1648725478717;1600.1347844922811;1703.2519736203667;1729.6216391579255;1776.2669120720084;1733.708541520402;1668.6836504903094;1700.6678007079563;1870.6803386495394;1992.999561002025;2036.013106738067;2064.5122457315;2065.517269977113;2105.6579892792006;1989.2141383532617;1849.8588323448948;1730.385668618971;1814.6836468370802;1575.967581840754;1284.0010944314595;1357.0353649393746;1614.314243877183;1064.4832561248686;1000.791591097443;1069.026089355446;1260.6347903984533;1239.7529174011356;1172.3209421892093;1248.0980191154508;1131.9854906526352;1147.7734569853897;1007.6836795839572;1004.6110193851086;902.7036547147914;879.0005535180549;855.283634278956;911.5769217690672;984.9863073537217;1204.0063127267458;1298.5281680208982;1405.3451669772367;1348.788029927945;1430.6597883165514;1173.5425275077532;1301.6559851102093;1225.8482590260087;1432.5352213649867;1411.7140788553806;1479.8695695437264;1525.9060737152777;1554.8578399865928;1534.5812219979898;1638.6899314142984;1459.7329846396842;1345.6799916341852;1425.6373713347557;1231.759723842902;1145.011791041105;1085.0652713520244;1276.3947346737286;1574.736966984413;1861.8528199206494;1539.2697958498402;1326.5709018077782;1390.8565856489477;1437.1517860140484;1420.2979812512194;1626.7572832443684;1986.2118916988793;2056.9579227617105;2132.4618654818987;2414.129197543908;2434.1594274541458;2340.7758426053088;2607.8858675555557;2709.8256555925936;2408.291168809281;2180.3402573885896;2232.2365720937587;2316.528685457505;2245.684285940665;2668.0438974863373;2871.0061353628707;3162.162304650128;3262.6635308157583;3357.8018420033395;3592.1076660992894;3651.7913938823713;3595.199975465097;3522.819318817572;3497.7534735218505;3190.120077646551;3355.585661747282;3738.6047578281796;3619.517556775184;3930.6913461100958;4100.697159666792;4077.478256717637;4246.189182200607;4449.424924301584;4551.067642030732;4324.958840146393;4135.940697251844;4309.607990903227;4659.259596118577;4790.994615448201;4961.613484508798;5035.849572314329;5387.611810586681;5319.538553115128;4724.490907662244;4585.365794054517;4734.054704286442;4511.1588247410255;4673.858548213799;4929.931685499367;4941.369841168644;5101.166005354416;5025.423874306652;4928.1748893765125;4875.560035249163;4901.954042859843;4771.594750950414;4869.648315605964;5088.805742402603;5078.809383443042;4992.835019606676;4760.071664680634;4715.658381928021;4544.018338620502;4381.450766675152;4787.615506427486;4562.807085632466;4693.666310647874;4392.085514591771;4705.023485065155;4763.5548977187045;4519.924025026829;4586.283411380447;4332.770648201742;4017.699458600815;3957.0987351562017;3563.4531005590443;3237.6644758761167;3058.659871822869;3019.975217674566;2507.9639753962174;2657.0803964451943;2664.1826927489637;2457.459592168958;2209.074060454048;1959.5855655276455;2063.395538910938
1544.5520443782461;1625.7103090340797;1612.950021440829;1737.0120475942194;1986.9652673534838;1958.196191412475;1841.6389087071802;1506.2002427785592;1501.887926602184;1541.7324758719433;1568.4699221616347;1623.1426359690604;1724.773053858663;1791.416952308471;1768.9419356112166;1702.991253533186;1709.4155170032109;1738.5492737329432;1833.3573482760148;1910.4834915466663;2033.5764448515401;2178.738115894921;2319.910030812567;2083.407046989356;1955.7712605920915;2069.9122308745327;1816.581827599497;1317.115813430427;1220.8001854826366;1620.5334240208776;1289.4096375049876;1060.4746283090176;1121.648765204679;1176.8478368385686;1378.8468485315498;1557.900760580831;1459.633521024707;1394.6385628274247;1317.734828564296;1163.4531490962236;1086.1788623916614;947.1500036973962;969.6683187998451;1036.395279838548;1023.9747596434127;899.7847325144176;1055.2222548972131;1090.517130308533;1296.1008012028656;1183.6190751557842;1512.0688929944263;1492.8424693535926;1457.2052106533583;1431.3878970911974;1542.7371115239848;1400.7197911787835;1395.0994614646397;1467.985293303771;1601.4423198679197;1623.6585364087696;1697.9633083669087;1745.9111215592238;1703.3456194815963;1658.4547872046314;1540.1805716892522;1488.0186405941486;1244.9104779608315;1205.3889828950132;1281.8754395718079;1615.4695002977487;1651.621762971662;1412.4065760219855;1474.7534139171912;1601.3782031588062;1706.212100462374;1689.789789791953;1568.5344341993623;1963.7127558165685;1940.57468305552;2293.0124755441893;2375.641672513956;2679.0071532541588;2622.265442530538;2799.009076762004;2498.2969388892416;2301.479484780689;2433.6254616480383;2469.2696882098835;2588.2698593014675;2736.4868578643263;2400.701081432744;3064.711954065401;3081.256030794256;3390.996543590795;3628.042975126523;3502.195238906622;3724.4505406562703;3831.3226447107827;3880.2497876310563;3473.2403014850806;3358.089415741735;3573.5008828683503;3749.1632861722774;3920.3298291489527;3955.6891651165597;4233.85492645929;4417.897535278845;4393.85640155266;4587.5772796649135;4580.5035889778455;4281.655095888726;4461.83462413132;4445.415504990992;4657.005304463051;5009.808035816268;5184.955888532276;5419.48835200861;5354.44704223933;4943.339620171048;4693.265673145579;4940.157426864016;4880.670229473624;4972.908966179581;4618.401139320247;4896.2222710013475;4957.287879390692;5220.46514649099;5234.618101497637;5061.600839224379;5105.6579668427985;4946.336663369311;4917.226434455563;4847.834069606482;4917.416216189271;5079.998574304344;4971.610164523393;4940.741945593714;4771.104807692584;4676.172779035488;4603.628551359337;4925.841574779846;4922.348963475908;4711.538368923254;4764.102841338462;4704.447775391329;4735.101360549943;4802.6888804328255;4700.548632419313;4384.401170788638;4376.056398206134;3899.215308132203;3633.2355707681436;3530.389462196951;3299.7354159000006;2807.798806340309;2630.979849635796;2789.071475954078;2778.199860588882;2527.6484203702175;2277.376857534783;2192.691002906334;2337.2978041710103
1538.5904476566038;1445.9434224366678;1524.8487336079252;1746.9137462944873;1948.9146132804726;1745.8132395465018;1488.840576413707;1458.0134428495312;1535.7828566419275;1650.8858452872128;1631.6925504857845;1609.0634193638325;1640.2364444152863;1767.8191855618888;1835.7893095355575;1852.9876983957074;1772.7754923624188;1745.711705679535;1817.0051871722098;1878.498701480189;2008.2252141273466;2080.50354590197;2258.6214181998384;1901.2821360337393;2122.0850314477357;1936.7235163832893;1389.8129979278701;1293.319322014307;1353.1909002713983;1191.3352404690431;1123.307798283338;1200.0169924315564;1238.2732022284595;1356.6838127473102;1426.8464776239125;1688.338732121012;1649.1543305758714;1518.4888627016053;1342.143038694977;1304.6935092069289;1105.636023337489;1064.056636068476;1004.554590805727;1149.5191087725789;1113.8429673794958;1000.9895223028925;943.7844373250946;1123.7532476157653;1059.936507225871;1379.6816761421096;1479.4857536257077;1662.670957391465;1516.8363265309135;1329.921386607492;1337.7912049876732;1303.1522763397065;1343.1123430925718;1428.766333662783;1463.4666761089475;1523.5163607510804;1665.9993755993937;1650.5941647009295;1715.2794641248965;1818.7057855341009;1681.1482232919234;1427.707743443103;1449.8538673320427;1307.8997570802685;1423.1794001689304;1574.647451993822;1499.412889986168;1606.6365046417031;1691.1742080294362;1665.725002786351;1967.408440573622;1948.0516268245992;1698.5234056043764;1718.4577624994126;2301.0141640316233;2431.9180695705627;2575.9707316644963;2621.3192804940227;2895.7678103525077;2576.8947098589615;2425.113381895535;2546.2948284551167;2608.351094692278;2718.5826645818725;2854.0941061723825;2973.9864915190074;2731.7435439991505;2558.0942481402926;2855.0020498675376;3374.8458568698907;3289.1007673912136;3660.5313285740876;3857.131889580197;3950.3238756050505;3754.482568465325;3759.572345514169;3512.043303139604;3761.202694690528;4031.3986649341714;4102.898659250412;4232.728013482831;4255.31379451853;4527.596356789454;4746.139109071244;4709.630492538136;4545.547669069726;4417.023773749144;4679.2185596693;4738.608508922707;4796.489142489674;5098.191668138024;5427.376220026017;5424.263562187294;4960.934599284527;4783.287573517411;5041.606528430822;5054.615560250471;5235.799010035985;5113.393058319217;5041.196235698497;4724.4789814837;4982.876716408526;5184.297543663541;5349.522595311793;5366.280742279289;5299.73230196317;5117.046049279981;5137.963566223191;5049.47736725761;4927.879335347205;5005.7995813222215;5087.874533211971;5009.111805461315;4908.002519302996;4865.509163416833;4943.25536563069;4955.050858379929;4946.54254714591;5102.005815331517;4819.285662646384;4777.223379989773;4906.215650161179;5002.706074672888;4648.40109432634;4593.610050418467;4219.181745135207;3967.0807301235845;3890.4801332598263;3992.6320856611;3644.821782791597;2985.9113105779297;2750.21262454562;3105.5704934053783;2912.834150896476;2689.041586371285;2493.3768435259635;2498.0838764764076;2476.8244915642354
1343.2469708846766;1347.7065020131513;1390.8850150946819;1566.998814569598;1835.5827510840954;1472.9712250011899;1419.1500838744587;1502.7542486676366;1617.2384656600998;1744.812002855937;1746.7031616526801;1703.2746589703256;1647.9679843349095;1767.2023260693513;1812.0235769598012;1925.1464897092446;1846.5343499663168;1801.4266532887204;1776.4031091655297;1865.3279548719665;1888.2642131158946;2000.8637897790086;2138.41533433778;1809.6567717913986;1654.0288770687557;1434.8277354165875;1365.4123645278223;1498.2784392900758;1347.7007467242938;1355.669193861634;1181.141054629813;1268.7700743769733;1455.9361699479086;1501.1226167309496;1556.669338486554;1702.9022558951901;1768.8861138123439;1592.4585762327624;1717.4918850242311;1301.5556116233097;1218.6221937735913;1120.5905825600203;1069.0671357184265;1103.787732984139;1183.8641653584027;1163.7653685393243;1050.8217774751606;983.9171190579546;1130.497419728043;1256.0104707039673;1481.340041839986;1595.839028679531;1292.4987254679;1236.3808227460086;1274.0998501623076;1333.9368851652966;1354.309834801993;1376.4496936487176;1409.7922517200805;1483.538506517426;1503.3697366516435;1550.9187740886682;1660.2405862045862;1865.1137747869088;1643.829184657482;1560.4497683885402;1396.5982387618005;1478.9843673581508;1503.772894053276;1778.1614124216248;1580.6439416226021;1649.2805028876337;1866.335410006579;1943.5957759167168;1947.2421036801707;2007.5505214653049;1806.2703658375622;1858.821595841363;2072.501485070995;2328.492851556338;2509.872117232194;2742.50320615735;2708.7156432801094;2529.266070130996;2632.273125916782;2624.4917018946107;2796.1985659565016;2911.340461204547;3099.7931290961506;3139.045995271643;2887.9873125741724;2715.686816441207;2951.469953594986;3078.9420430650334;3321.961468800022;3767.20359171996;3822.124309614136;4060.0134671260093;4034.3457853202644;3870.881612462843;3670.656213543799;4031.194054012587;4062.489297781749;4347.1791553740895;4389.645821130631;4629.861641515083;4674.811476665392;4853.3222013570385;4866.639530727383;4749.349228396572;4635.765043796727;4554.648796388529;4827.4311442860135;5041.682791611354;5101.581535723585;5250.27113403076;4986.486663993836;4865.941963949269;5064.757677439612;5107.498128169389;5291.652706360578;5388.731562183738;5537.831529818281;5121.319347099402;4821.8574265172965;4859.9950114793255;5200.553985570246;5291.521130506082;5395.143448318474;5492.938385390349;5357.239545822371;5297.189357796551;5160.250141992195;4996.664534675931;5041.600580379264;5177.954712601303;5134.059539505964;5099.25054513825;5225.518286544664;5160.315998829508;5023.476005878855;4678.869162791682;5026.95891219267;4443.385240649813;4511.156746085599;4935.967842284643;4806.629618834725;4514.927655622038;4423.322658967864;4284.293615798551;4424.740894703404;4204.006028221478;3966.868025711932;3092.870852559452;2870.6891530313105;3129.43719266497;3117.134751380616;3007.073788675545;2823.26999455442;2839.785067320435;2974.0067087948264;2668.1146923353763
1252.6423509836;1239.1728111323227;1343.1803361946822;1447.2281900776543;1442.5405790639606;1383.8067570717367;1492.2071396960318;1578.843926875772;1638.7916612798908;1835.848662676326;1836.0380315588227;1759.878335862174;1704.7842881867145;1703.2558375591043;1841.9317759118585;1993.888468512485;1938.2813685989559;1851.9021872762733;1871.818649412946;1801.2211975615792;1887.4727536636929;1954.2052844808786;1966.539817394997;1599.676848800672;1494.8428773872001;1433.7025348487005;1562.8220469642602;1551.2263656548748;1586.4343769054594;1355.5411996358926;1328.0056437003468;1229.779215278013;1404.4543081525917;1459.1776930984643;1644.3552875956357;1724.0148210340203;1833.399539353646;1844.549363597388;1574.4151370423415;1465.6268151824997;1320.1539601964778;1180.951663585391;1129.359354309889;1165.978923494239;1312.6226632522375;1260.39968310239;1105.307953363228;1028.2166574077992;1141.2596412490616;1218.086588026892;1553.355653654401;1251.469168509641;1206.2929166809527;1291.9012093399951;1294.6993976134672;1351.4868261504262;1404.8353173961468;1411.2861069479368;1445.1945715449156;1437.1596098566542;1466.6257897696914;1524.1749946007394;1637.9818821400759;1638.2632481448845;1567.8642249763243;1472.1302381484165;1544.60266408574;1599.1943467668916;1660.1927062053883;1741.9931563396367;1856.7527448590617;1675.8497349306963;1831.2556608404611;1961.1623660467694;2163.301757166417;2221.5311426514154;1938.0261609383606;1937.4336787444063;2015.5083887777446;2253.588712303831;2533.325984176693;2645.566607434431;2557.9553692083464;2669.6084158025596;2750.901321470911;2815.1353103174733;3091.470334708102;3072.1032279405417;3423.8287574591777;3403.801714301141;2933.1709350256206;3239.3741342961603;2840.8251983441596;3382.9671533569654;3459.766144914659;3528.1874744117977;3920.7344273841227;4109.186427308527;4208.030550432902;3916.9604394714597;4014.346113783762;3840.090597068822;4171.199779906983;4391.294779596164;4543.8707797330335;4768.661519230762;4991.816847656318;5003.956477569645;5057.730079246357;4844.445611391244;4843.956600656822;4685.365609236023;4898.210464043848;5046.424152190337;5203.2580720426095;5237.328581753834;5162.750825543564;4963.686486394074;5095.8471517145035;5306.397377490975;5358.284885034114;5635.8577672498395;5140.477437719894;4916.5883320449175;5172.205786433997;5193.3312623126685;4993.589868546833;5156.529131035921;5444.087517165979;5491.681321979047;5669.295036419602;5316.328361094553;5069.683491930983;5200.585853249298;5126.6145208986245;5199.405862130197;5358.281442455308;5271.802452060197;5049.923436814517;4776.9437925295815;4661.506058476805;4470.440321770559;4927.469254060781;4257.9508020545945;4613.84029511007;4724.920110257485;4543.305464598707;4327.162584135105;4070.329695385595;4289.697113906283;4369.8673258551335;3577.191536182757;3209.185209534073;2994.143058327628;3309.9670268471555;3151.7216933077325;3319.386523978552;3080.639887489676;3318.564063981459;3130.3451501668196;2933.9453346635346;2332.2954976438614
1217.0457254938892;1240.3170777790624;1273.4598256152885;1311.0140494220527;1345.5979471722649;1477.0850041438725;1550.7978983528037;1670.4237235126711;1811.8563158474253;1812.8981592672153;1865.9207150838865;1728.7792968278118;1774.8024285460688;1815.5957761445034;1862.663945822097;2033.472211502306;2008.35505507368;1930.5661477957037;1894.542206543807;1858.2234961243066;1784.9001679638368;1721.9699160890914;1645.2984235277;1578.7044143430576;1529.310702451391;1643.481911035481;1616.0671201389496;1836.8956290777187;1673.770557925911;1576.276849890356;1414.5581937920679;1364.2680364941089;1284.7071909603274;1395.9671902961309;1487.2234555650039;1654.73411620357;1782.6170659522559;1850.0782475593842;1805.5322968797;1555.4515899986145;1318.355899121209;1242.5849867773309;1190.6811197320962;1229.640778023575;1400.0411993926718;1316.5423393166543;1144.1491486199434;1121.9040603224917;1069.973049701216;1179.2334309824937;1245.1563770342345;1178.600302755733;1252.407439084854;1266.9332745307092;1365.0624142586494;1395.219816783143;1517.5362677436688;1563.9300037846551;1450.981487182181;1498.2326652972088;1486.176624066794;1513.4154479660729;1551.2866309529145;1632.6455514214058;1567.8654097768003;1654.7965027672608;1665.8236918638486;1731.841064997082;1824.915049931088;1864.6553945176483;1926.846452213107;1910.3498207175226;1772.0659265812556;1972.7202688660755;2048.5845542818024;2227.2010179868994;2064.9405772033924;2087.0994466646544;2313.971482925085;2167.1405043922405;2560.4966438614038;2420.0852368012056;2628.7332677938084;2757.1764435320356;2868.3324855917626;3035.010858420482;3023.28809792259;3405.486188373545;3476.1911985699753;3592.0482527838412;3322.2638177610725;3120.1175873648726;2968.638671234974;3186.9255492373113;3775.9614340620847;3745.085791535147;3830.156894292987;4208.4313846353125;4331.696864069452;4226.406399816592;4063.748282840459;4075.6372612952155;3993.746328186875;4267.479913098619;4606.654707997794;4603.488724162814;4711.0169395028;5018.345286434351;5057.9565601242275;5098.882484610838;4903.384782990562;4937.822840082787;4808.072617281743;5000.698458091671;5160.608427604657;5223.841190576041;5176.308175091605;5046.564545185814;5134.6846083138535;5325.33932536857;5632.5877721813395;5290.568199992323;5005.911880437031;5204.987721308656;5279.725286658654;5215.677994223535;5234.332793074458;5119.712743584539;5296.441249726919;5457.297057058757;5412.627432475769;5172.092553485912;5187.744515193448;5210.075282077906;5342.98524737653;5400.592991386454;5061.203224387451;4778.352098635277;4823.107767066669;4558.132725648868;4458.4666937338525;4358.630021101657;4261.28865642087;4162.00253132238;4524.01516674248;4296.992353430335;4544.680477472861;4336.366116928393;4345.543852242843;3753.8311901497455;3900.539973753139;3285.20012160281;3120.4620787824088;3532.573449255621;3299.4334765868452;3542.4564980820032;3396.3544627142755;3433.2253453118874;3011.4852506057678;2471.432906817974;2359.7511558039696;2242.8118313121777
1213.9412879317879;1268.3586586054357;1326.3055675146757;1435.6394696865573;1406.5741606257043;1497.8648965422226;1633.903996497691;1814.922148884093;1899.0759817794706;2060.7593743823563;1876.2223854826343;1852.5015540590784;1798.7200286892357;1862.1791260984892;1919.916600884564;2074.5171380606835;2055.1557510470884;2012.9026813891305;1943.6524145071935;1903.2440785775607;1836.48361492596;1785.4868041908667;1695.8682898593452;1629.4745613742389;1809.95923817131;1688.4796221098868;1867.4425561867329;1985.6091632738662;1915.4080295677459;1699.0356025386154;1573.1111964789807;1480.376371586858;1437.82771658612;1334.3088948483528;1439.9120538019688;1510.7081040868325;1610.133213190793;1848.5768304882376;1874.4234572912492;1525.2430493135953;1427.9412655023552;1331.7145697793494;1256.094417990461;1282.308191582239;1390.1039485672336;1380.4972701796323;1278.3312359806591;1179.3849921541891;1153.2225047427942;1104.7855166775144;1141.7627769326414;1227.5118107957383;1256.7209450654832;1331.68092856266;1438.5846151860896;1554.367224290554;1618.0280646162619;1628.5272423293118;1541.981370798977;1507.3533472055187;1564.6897593934418;1530.297221381742;1611.483108121889;1649.6343259690984;1698.5272110194855;1763.4975362709993;1859.9337646080185;1900.995471668959;1987.9139171463512;2176.68590000316;2130.7330791900267;1934.643283997153;2000.7908474894102;1869.0128922525982;2093.712473062101;2130.1986750343185;2175.046649378496;2197.477960070084;2253.124896926305;2446.262824166155;2292.5231310516547;2492.3191583793905;2620.289992187655;2879.1500441304115;2975.6135421379386;3105.3940064575354;3319.0135024695946;3357.666732164238;3669.8357292601813;3571.9123356412238;3433.7738754016045;3239.15336870202;3096.06599716062;3381.093842697963;3913.7150469422277;4065.585284888005;4059.3960574169005;4164.477224684537;4452.078006139041;4389.900360557027;4258.279796698635;4287.137120767939;4365.979229598163;4161.00889688086;4361.335057135419;4520.478053262218;4960.21716159091;4941.969407800217;5184.338283513595;5141.580026787077;5148.75979899237;5104.706242523313;5030.150551867822;4904.346291877617;5041.671364259771;5274.752446973056;5193.745103795099;5136.693059435565;5307.521454341511;5359.926392744226;5341.973255422124;5100.200399643092;5250.64412368896;5310.726510014533;5486.531345386942;5518.84962039928;5399.958093523468;5279.951270286742;5240.264698413593;5379.598528218232;5367.894407913497;5276.74510612409;5332.297874052584;5417.882680725204;5424.514515543419;5364.168398320486;4974.5906999269255;5013.758978991353;4654.446739417055;4740.389289166894;4770.546836253211;4695.6990565791375;4447.867616975515;4369.837394224919;4061.429066217075;4343.846977588128;4313.404807273788;4515.254392138271;3908.352444597238;4317.796647112727;3460.908100636223;3247.42856401037;3548.3500377343453;3421.275636587392;3659.1370410640457;3487.1022835448675;3108.5028400377914;3525.728334959409;2598.5248472735293;2478.6451359023613;2495.6006626231438;2336.80239033445
1249.4770371901336;1372.1254550251451;1416.2443429404657;1487.602670443578;1610.918549335065;1569.6624346394228;1743.6011747297107;1891.1970870037976;2141.2973764925873;2113.4388853871196;1854.5402128360583;1784.1043795067326;1910.3829284194126;1898.0787415351888;1971.3124318072414;2049.2781545233374;2186.6184018884323;2103.3926323507712;2048.532418535927;1967.5193184104892;1908.2731219844445;1822.7582222071424;1900.3735398310127;1764.3781652772332;1842.7328911496024;1915.574242819529;1905.548775228066;2131.781817630301;1962.7607761775225;1894.4468396780385;1711.3672337023936;1615.2267056265428;1480.111721716079;1453.088171789217;1369.9502545326814;1482.2218044827605;1758.9496025086664;1833.9465418252867;1798.323360733073;1689.8998879226547;1554.0025141926299;1339.35864908458;1387.9778926218069;1293.224963958623;1417.5781158484106;1483.8489250650737;1366.1641095818068;1245.3085988319108;1175.1913324526713;1202.9770573756496;1200.004651504942;1263.20866996739;1365.1912344176162;1392.5332701112684;1458.0985365086617;1654.259513209734;1762.2600895347123;1731.9957795746086;1657.1708178304634;1581.3015403908184;1640.7299541096745;1609.3220273057868;1647.9607021246138;1774.7605475664923;1837.637551189443;1928.806381255492;1969.3248446519137;2091.2500666800097;2229.5563941936525;2270.6418660769887;2156.182641647848;2209.3340659283385;2064.83908204425;2040.9962782520706;1946.4839518716617;2057.285265361629;2197.6227506614896;2315.302845479194;2364.384683497685;2466.991810785229;2544.053296378711;2578.867098588038;2666.786291868788;2847.9628821749675;3082.52796784787;3306.206198882991;3425.5238283029666;3642.7987171834757;3712.0616860730233;3725.1373248858417;3499.44199476212;3469.9108436378892;3214.7560726085967;3323.6598233378063;3736.0465699438555;4094.1151699059537;4246.73321623517;4374.37571274984;4617.7708481698455;4567.29179164993;4535.026853536559;4463.915165538265;4537.044717464876;4456.764420166031;4308.664964632553;4627.546756941162;4877.659119434999;5152.932539302534;5220.5586412851935;5446.829243510019;5372.816031398056;5217.283999700088;5051.260126437215;5186.236466330261;5030.829141460967;5222.517747348639;5256.604998921916;5260.944888879536;5334.345766691142;5457.117024079558;5153.85930714924;5357.594460853842;5366.207297627428;5475.862417776098;5759.9260525905775;5649.201883061467;5532.786294606311;5455.8774263582145;5385.828937047101;5371.331208094156;5490.831285740167;5419.593841208316;5428.139510672028;5620.046669055677;5632.934990550173;5297.3266788239325;5200.425504565718;4897.562873256192;4741.795648947296;5059.13821729879;5030.7227186171895;4859.00626691663;4637.127200248878;4459.86051137827;4341.477581256389;3956.865788118399;4676.904187278082;4638.578561305747;3996.892270302619;3484.166654112625;3366.468609094036;3727.2649696552007;3602.095658609206;3909.024777315981;3721.621359605392;3431.9226299889233;3503.368074797846;2802.6831369833753;2600.201491760802;2916.6021711182157;2586.9022964389096;2554.4036325177995
1317.9504989908792;1444.389092847653;1617.1905124315244;1624.8061947749547;1682.208348854595;1830.9232542343507;1806.4364290373524;1988.6696662534187;1991.195267813252;1759.1762526859966;1733.7628451061737;1846.63959794962;1874.8851359313685;1972.0713013066797;2009.389091193868;2123.7921850762204;2260.928316170778;2300.796000239343;2108.2259241391657;2055.723268748352;1940.1812112889957;2089.3386936280267;2000.2606053808022;1917.5422195922692;2074.1221731903943;2128.137644720957;2214.561297117896;2148.1943781030377;2160.9930094269275;1916.4527023223836;1839.6411627190228;1747.1987678377527;1579.1425866194368;1537.5117952112323;1410.221033178418;1578.8977140343231;1733.8106273741141;1777.187371029151;1828.3316390522377;1636.600806425733;1466.6408894919923;1484.567962501471;1387.7038719738703;1413.9697536153926;1416.8841905768477;1457.4285973232509;1411.0071375785847;1353.3274961835677;1302.365290340082;1278.1003291249726;1368.3987247466275;1324.022765995342;1421.292740078231;1521.6542994112779;1611.7252849631523;1653.3571313019393;1861.38394054511;1853.4357278485977;1667.0108293035355;1776.2025328877435;1753.2011075256432;1805.3282896379933;1786.4401995898952;1821.149997754157;1988.0395924424747;1990.1039988266157;2115.6474666524673;2207.83081019186;2171.6952705826106;2154.260816114912;2216.5342819415846;2223.5231552128553;2213.6316049716597;2117.859014189663;2037.9277729156402;2113.4745054454343;2230.1097181200194;2339.3876593634677;2459.2605708500723;2553.8200126235697;2636.4946193842243;2764.1768661790993;2874.388947555447;2902.1830128744614;3170.41705812665;3343.7525025986415;3572.5476437538455;3692.2786192667154;3948.739367062388;3827.7103710554866;3600.5683981789443;3521.977129583537;3332.594051271726;3519.582820818009;3594.911885871915;3885.1722959799763;4232.44263262947;4508.960073326795;4475.321416407301;4626.98636456252;4841.0639674448785;4714.1658296447595;4611.942088143647;4644.181833641069;4476.787282444668;4502.427335916884;4849.587375633112;5048.999153638317;5259.465523556012;5454.09559760728;5486.8992982241125;5274.692510747254;5324.654112347627;5180.269922505269;5219.585217670441;5243.460023342907;5398.108111069331;5382.779063063426;5507.9438637271;5419.274138479367;5367.95630002949;5245.025076027605;5562.430906933858;5699.431955236618;5763.287031375765;5863.843240493225;5832.543174304285;5591.3045042521735;5632.0637417627695;5565.103410049622;5503.413949450303;5664.111787972148;5559.7551036841905;5663.140578499575;5568.145326465248;5438.693832217139;5160.0727275629315;5068.705840455562;4831.567578596103;5092.963833957815;5179.853752319498;4973.6332582166915;4866.2365920437815;4800.560545774665;4527.235941531581;4150.011936289067;3847.0578885489313;3729.9985750363385;3609.370343261602;3869.7160404817187;3995.3392581237304;3877.395953141945;4017.075427947252;3951.3752063752936;3755.7640091065523;4048.79027178421;3805.941885847935;2953.890912377062;2715.2349739239507;3024.824356658469;3078.9308340558455;2583.6872257160803
1390.27449511158;1616.1922424716186;1677.8171916998726;1899.6352779928684;1913.2260699078106;1679.4998754213238;1687.3454042531957;1738.1559127779492;1720.3771729583768;1690.3663329109722;1780.1391256867328;1824.0718467947408;1943.2988322936671;2056.2083988697877;2093.0148217985143;2161.5343470765656;2310.154942903372;2255.059697542192;2349.4193067902015;2103.2067633709585;2177.8492086417245;2129.6069842869456;2099.849525555792;2152.594881952252;2159.467569080508;2101.065835730412;2157.357642560368;2272.507934053132;2205.917957414338;2116.1023142266085;2092.606832255129;1761.2718117962495;1769.992991855127;1611.5948707982989;1448.4231489877557;1477.8588452581325;1566.9654341255646;1812.5306211677707;1877.4938503231615;1651.1583402249344;1666.3458935550516;1534.0721773057112;1525.2062210948461;1444.5296102905068;1347.7931215876952;1389.954646854203;1452.8749851018383;1495.6636440635903;1477.7103292354795;1409.2924910257889;1491.1020206778503;1488.2665580090825;1593.0586201115102;1711.6861926948768;1775.05749103173;1837.0591472498672;1864.4948877509642;1831.6127022398823;1871.1659155654688;1980.8627494510029;1957.7185465533366;1790.3206118066646;1785.6494099423526;1864.1672009716767;1795.6385955939122;1861.2903541967644;1915.1635048143098;1939.3881470122678;1984.670230878839;2097.897060303374;2055.198087166392;2117.771290387156;2158.485406734827;2099.9036636414585;2151.4354959479087;2246.6259676509044;2339.9591274631584;2417.098301153236;2529.917802814318;2596.2604299874447;2734.317454310167;2876.5363282558556;2986.2746220215195;3120.548449403498;3207.4634752748416;3463.6555258707112;3684.8616167620894;3896.30529014873;3884.332852319947;3364.377224635812;3394.1292154591765;3480.3700230015147;3456.519334817959;3719.7563151452478;3886.4237825663795;3976.957860751266;4189.93152756069;4203.819059835955;4370.9296561366655;4745.951950742519;4648.241825393995;4394.718105411783;4437.794097034962;4553.607245657408;4645.134800950601;4730.266268574389;4689.608806205326;4921.105012551754;5201.175793186861;5558.32802940932;5385.881666642987;5370.268824517843;5372.352442117491;5404.408394968345;5342.546171216326;5403.4421727069375;5567.328142556176;5532.551759762569;5628.698521468214;5606.06578763819;5417.920097568008;5331.901284411482;5500.835709488185;5684.534286445478;5787.271372354331;5923.9895877365725;5855.73027493522;5878.963272647372;5733.6028604101975;5853.631980330139;5690.394892096718;5640.619881311308;5796.495754825119;5740.337546054827;5660.22151758825;5552.651243850783;5704.86071888128;5053.3534847479095;4916.4997863394065;5125.747303710903;5440.717245942769;5354.719270921667;5207.644236069371;5028.569655260082;4382.179959323438;3998.8452939730914;3868.8645072928894;4065.236917692994;3909.8931996165293;4001.989788123258;4224.728611264861;4365.3196331597965;4130.307128327931;4019.0782501547874;4279.865959004943;4039.675809553916;3021.1870596796516;2833.459619411229;3101.2857344745707;3100.542598591891;2878.8071796780587;2863.6514342411156
1631.8455439148975;1546.0942281314428;1868.7200591221062;1583.255237293396;1496.4697451450393;1514.4564046252117;1555.8288864950891;1596.9674771859136;1641.5656469627456;1720.792548608225;1787.254085926189;1919.5768020257028;1976.1255588246677;2102.797272421946;2246.8746033472;2216.876817660949;2452.91632587797;2465.5440349950395;2332.1640696692284;2352.74950908918;2512.5077014489707;2434.0368100799733;2367.458596478602;2309.0763630492675;2237.9684542623427;1949.2168743603625;2030.9994019432688;2063.1748283577826;2163.8619811002245;2388.7689528659394;2094.615306255466;2010.8852742342106;2137.5040018507334;1678.3114995285096;1480.8267377150687;1554.415533443529;1711.124487542249;1878.9802151924787;1912.4905310497033;1866.3961069413954;1768.754587132763;1715.6282871350513;1566.4623853745097;1614.0687349040318;1291.5045979481515;1340.4266269761256;1479.620627575434;1429.2601504704762;1625.5111621786282;1603.8575536480203;1645.4055492030702;1667.638359215296;1819.9897981312852;1728.8505399294463;1721.0237897785255;1797.4033234433227;1818.6729525609262;1953.5313370063977;2019.1582033356135;1926.1522791519292;1693.3022877530493;1604.803713684897;1621.6335393716918;1680.7482979418774;1715.369153522197;1771.4031872315481;1822.6604497264425;1869.5386883299789;1914.3996255786724;1967.7594838137375;2014.1905721609237;2062.41416130554;2127.021481558406;2216.7979397261433;2223.003707086392;2312.2012160291188;2440.234076052114;2613.6960172003564;2699.294959040757;2874.7008816353136;2809.707710527594;2990.779434850804;3251.3633459254715;3273.6612536778675;3502.0041953819236;3780.9243000026145;3507.890051522627;3651.650817252669;3305.6827994582936;3255.6827000602016;3344.21696238007;3558.1083051469886;3594.0540442489564;3566.4731891984266;3785.1930695009487;3909.7965427843646;4003.964731948353;4132.314278149847;4353.043464444381;4350.968657700682;4256.034626128165;4341.947523749646;4482.386595290764;4644.383147682519;4700.156039341809;4871.264316629016;4973.419777586606;5092.863120844488;5426.3274114764;5192.739523708597;5021.040470458678;5341.803648507861;5524.561205666632;5515.926908496873;5609.898727571492;5563.544741897431;5637.1453198902855;5783.271222148496;5788.09826862609;5627.68639089291;5493.904922719716;5557.613105846298;5409.603448198777;5599.304649230979;5658.776989465883;5974.578153427243;6042.283037821577;6029.881202320308;5940.80042189461;6004.3688418596375;5857.531062465916;5801.086210121559;5869.165617088047;6113.293683851449;6028.5546031882295;5884.80016560657;5329.53467836222;4995.055569746445;5129.955505503169;5142.598954869499;5413.365004133175;4883.858503673649;4455.5491447466675;4280.668776406805;4141.9790106664805;4390.328466915524;4048.3120283057724;4202.641579555985;4214.183904686183;4235.704032207645;4513.47443645015;4411.505600644096;4347.927389213444;4455.4252927625;4284.660184185292;3264.392731574445;3015.990482022513;2949.582760127915;3149.861370282675;3180.595908599389;3205.8149605295175;3354.7437668818748
1291.1973829671533;1740.0846478279627;1491.642481574906;1427.226223769584;1476.1937531569565;1564.0697230610895;1610.1434621658864;1683.5729408642137;1667.679408535917;1753.885927854879;1829.201396831285;1979.430684158886;2136.001233097846;2169.221452542015;2386.3352314506037;2413.0153786877017;2426.478575254221;2514.024467520263;2672.4628744564534;2520.492950006701;2338.5851537224216;2102.4085107514784;2048.3136809253647;1950.4097085371914;1860.521088196704;1841.0710374515884;1916.7395757285603;1949.582989393888;2090.297871629178;2207.8467844744046;2035.0255206823167;2206.143861333803;1934.4219158476653;1579.4339993757558;1508.6276280461625;1637.9043693792682;1709.4026182103053;1953.1562057954543;2128.7365461745067;1936.8980934768251;2010.2980052317707;1900.3892568352185;1780.177831986086;1639.8267280901537;1277.8115816904437;1320.0593121995016;1366.2661411635245;1530.0880560357573;1570.627837984187;1780.6995111548113;1618.0686138461842;1705.1962035387805;1907.8111791353685;1446.4500437044844;1537.0903728357052;1520.4169580322332;1727.5031419620755;1986.5229453637812;1737.6099467885215;1627.2213964686243;1587.8373048789153;1562.3034010760348;1607.6755334291001;1659.656981427349;1771.1462252131196;1902.0728856113146;1873.9655615458832;1955.7516798795104;1978.4686760917375;2086.856166493094;2044.5496813802047;2165.79063034475;2180.95805404324;2264.011778623165;2361.025150932139;2326.57876361954;2325.4355150557494;2669.681299377042;2728.151346724172;2802.3011722545825;2988.119268895922;3077.3404257891734;3237.370435079257;3422.9610859759186;3678.751444834177;3695.866881111586;3160.6449072433606;3253.748460651813;3170.344697615673;3326.2756123482623;3531.4585821648043;3421.59709224588;3675.2174267242963;3720.735054025413;3671.2488806584443;3779.427281707688;3890.1273406412347;3989.1178699093753;4089.854954896832;4179.852815186183;4313.370566286283;4434.633153918879;4523.765005725188;4698.477951717588;4866.643631705967;4910.067359707095;5224.423657936776;5023.218548500158;5047.674190490922;4913.779034062841;5156.807141864186;5202.8317494671;5254.306246159514;5533.41882672087;5676.676088760791;5758.575988366038;5829.0245182657;5926.857886670112;5926.052555348439;5714.762423704058;5747.674866842144;5589.91308327534;5561.75439167862;5492.238230128554;5736.46627883689;5789.42838437637;5834.986393900985;6059.668813540919;6142.758128505377;6036.997546145976;5979.26194476335;6037.868488740398;6158.58278642231;5954.759927443427;5567.89743887383;5347.69618550085;5131.623649306667;5069.130415713115;5245.272869123194;5462.48686425658;5181.830726251438;4587.805720922688;4435.487064909337;4610.9747798301105;4586.561794052324;4408.174256518841;4302.687764041411;4338.123555237697;4492.002527911193;4487.421786659835;4565.949811475409;4695.220533679007;4573.046925878407;4427.3710128619405;3806.842025858762;3195.402362802839;3061.8885824797035;3245.7609682863076;3389.89908160486;3365.99389576482;3518.3815315412357;3097.8403340511877
1385.8611026681683;1388.1288940579798;1385.4234102073779;1490.358398678647;1524.5140057433964;1628.1146467044146;1688.7533234229504;1834.6875197534564;1926.058245340032;1822.269987927556;1971.0438207017096;1984.566890520925;2163.490809579772;2276.2629002917583;2244.334952089176;2354.542327905213;2455.5731604074363;2462.637784443471;2510.852297515771;2223.813487511834;2305.5817285137628;2212.4507148894018;1949.3710500079387;1821.779595985182;1744.7165990046497;1881.3686776301074;1779.795210503792;1884.6139016247134;1916.686664244281;2036.4428294589325;2207.12610184028;1802.0113203445444;1763.6426339452937;1615.8389046498196;1534.8245666273342;1578.22938727798;1713.1912194662618;1982.5976303982288;1979.412199374453;1649.5826234869774;1814.5279133128388;1487.1721349710297;1406.594457867479;1378.7813441959097;1262.3590897265567;1348.2602005329381;1449.12456981374;1527.3554943297995;1563.5754737341495;1671.2154464425348;1386.6624494403795;1551.6217251904827;1659.6816830189164;1299.9949752796338;1345.7840896788775;1530.276563042581;1840.5726105151152;1613.1553093841276;1452.3282952358722;1611.4297628678096;1540.7956570669794;1561.6503902522209;1607.4489030111226;1723.9589929900585;1756.5868477555632;1894.387958322999;2180.2835897862687;2107.0746894529375;2171.8602247069293;2203.6695765613667;2228.015129841554;2205.606020276383;2450.6043003741706;2447.0023615622176;2188.7884584938784;2078.0762797211073;2274.708230495289;2364.1298928492115;2515.685322070369;2770.965128421184;2898.460442588881;3083.9610818387855;3150.6566521629384;3197.379115955043;3568.61098676883;3047.4605500041234;3009.2486925338017;3092.108775363421;3366.6249191425813;3357.37777001229;3686.651202807354;3627.44667328398;3505.0051029032784;3710.0205250805093;3918.955335403114;3887.1193864123115;3989.4187895656387;4090.1283301730573;4129.593151291147;4283.886101297755;4492.391673010317;4505.825224581497;4668.286765687855;4765.962660029277;4962.027755991817;5275.074336240092;4912.365394158631;4769.464383739594;4862.766341747374;5127.849943303603;4997.914258541389;5088.649383154753;5301.302700723217;5457.481732907832;5550.4342707280175;5751.254970405402;5942.734770211029;6076.763143810638;5940.686487300236;5949.824039706273;5808.357990023043;5746.5171408771785;5735.304207290108;5557.471181953815;5607.608565852397;5707.068679744381;5913.095993633906;6110.531948666552;6214.391383579772;6165.63562022461;6266.094521083169;6185.166298663915;6017.3315774114035;5643.7774473923255;5718.731955942871;5280.842932922219;5131.960818153269;5262.743234289754;5282.837432464788;5062.534909091319;4769.754835737526;4593.783141734197;4811.349259556398;4836.171936436871;4703.425802069511;4589.031677198852;4776.616652089606;4447.2276981065315;4477.383319171322;4635.386630523481;4751.505840544476;4654.411009918138;4059.3978655398078;3890.1389248675796;3346.724599054768;3175.5282492358247;3417.693493424713;3416.4750247267175;3755.4535584527666;3454.5005304585156;3391.1525225116;2791.3039639077097
1359.8257565716622;1347.601743337792;1478.3180687916338;1434.2361213750564;1644.767650109513;1694.4247946600854;1879.1695001719418;1870.4436154932555;2114.524358727679;1944.7835030206743;1911.7263560488063;1936.548364134851;2079.823330979899;2059.0860063541286;2197.170805032917;2233.170448543151;2252.240442144537;2437.05982241577;2485.968302111455;2278.8397639024415;2087.9165837519267;2046.6653201396175;1882.9807163788491;1776.6865642665134;1839.429098227126;1728.8400991209965;1700.5599182476017;1762.594574750231;1833.251776427519;1932.7226030811617;2127.171076540126;1806.3148917317767;1647.3950425951334;1559.487653834999;1601.258971645555;1672.6873907712243;1815.4144462442318;1992.1760769895027;1896.240163705871;1761.9859944800228;1465.2119442911344;1433.0371630026893;1280.5331059374698;1262.8264600729594;1245.9350244966445;1271.2555793620136;1408.9578291561593;1434.5928693989508;1710.1760947596877;1541.7355599727753;1247.2684829900454;1503.8217375956283;1342.9924298170254;1223.8776904769884;1306.3166517308541;1501.1662824408595;1425.7194781101107;1293.397755736843;1438.7710438475824;1581.1843838648938;1519.7487796519054;1553.1062435103722;1584.6159871854134;1652.6404382642704;1679.229213884988;1969.908065106515;2197.8114190006672;2218.2349084293655;2346.759666525307;2470.3164857806396;2543.3804534421815;2406.105870416309;2480.5963059099167;1964.6717653617552;1972.851949906647;2066.0028758762837;2153.614196232659;2304.5775526108373;2439.936368280193;2577.2539753393858;2754.15047670121;2988.4058621921595;2891.760420746831;3070.3689436426494;3030.2136481465122;2919.387900870065;3085.052935509596;3205.8180016204806;3495.7092887705994;3595.414481522035;3719.971183396672;3702.971107768273;3563.5436498329327;3633.9811963317243;3892.896309879975;4068.7504271617527;4097.448775837499;4255.769826761968;4385.221888266113;4361.7985974952335;4447.0229266856195;4556.172880194848;4679.240519730099;4795.712573785847;4990.895459384471;5237.102176624825;4681.233057360212;4909.4548551532125;5074.17274300465;5280.571564080007;5238.410903534128;5080.260609063061;5173.830452282618;5315.1377634830815;5492.066001556881;5655.397462534407;5954.539228206399;6142.099720010379;6140.823538809873;6073.156977221752;5980.749385593121;6107.008920537024;5725.470595357783;5613.31985156749;5678.34141754263;5795.913182205073;5884.142081540904;6116.155040837208;6348.205149626159;6234.535996170678;6066.077628585563;5712.196538830374;5595.580567562065;5420.881838031626;5269.939432519112;5201.081239291174;5453.826255654272;5315.652425281715;5295.007118173354;5132.516449236978;4826.960868591413;4802.782608534898;4892.059920694501;4944.504976704429;4932.07503918492;4653.558648320312;4435.881389177539;4240.491724330292;4353.744639542868;4433.019154319046;4673.236481114656;4070.2741914766975;3938.180391401468;3578.4672654320957;3302.5483706959085;3432.170686803217;3621.3096818794147;3751.830626210948;3224.9805018019533;2921.2950186948146;3319.174048338782;2853.212916092898
1308.6364475634623;1476.4848396788675;1415.0066221238376;1582.6396181599694;1669.959589849239;1873.8428350980912;1887.6048893638717;2163.0508499651805;1849.5241226733579;1749.1596853243173;1818.4088214008161;1928.729134428164;1938.5691656595154;2079.5247380447745;2087.7400029942937;2152.3547612803122;2273.2485255655693;2450.3761221070845;2588.639939608458;2351.8729454695567;2279.998102322851;1968.1709826086335;1864.3844166151175;1887.3172266925758;1864.6077049383093;1828.8350639150049;1820.6082757842996;1658.6190517647392;1729.183722496753;1863.4116976180994;2024.7630085454139;1674.3045433727802;1580.2016480017091;1657.121375586502;1710.2482849016642;1750.2815883456915;1924.2737719981305;2067.902159434725;1907.5589998338291;1860.4820713000136;1470.0917296608986;1333.0887282207004;1352.7796967257736;1243.5093580171892;1234.7374565400928;1298.3325264723353;1346.1395226521818;1620.3278820329779;1613.7654779100922;1238.1158038976046;1285.7533169341018;1156.7630642793379;1157.8234335908987;1298.2079808937037;1172.2873114257018;1195.7062555009197;1201.2071678847851;1241.7991979342069;1462.595689946601;1530.9670700943034;1511.976386257038;1498.948688155052;1507.2894945314356;1553.6797332087626;1693.4095447774744;1878.6483041763831;1937.0140651491183;2002.4952040028584;2326.3120753155454;2520.425189754328;2479.0668952669575;1947.98105275109;1862.0554401954014;1890.389675860768;1984.7126622614624;2066.2579124866497;2365.8962496643007;2241.5357173282355;2331.8178519583;2527.395265598516;2664.0613980743146;2682.9929842887304;2756.1483843055157;2939.8240124900803;2833.002467912567;3028.762169571384;3131.294967005845;3328.1930249602856;3512.5102689743417;3885.4758698627984;3846.7478895173435;3810.9331535359934;3610.4242839100443;3777.6971181954796;3798.053640112852;4180.993049509354;4217.771725758872;4382.25590361835;4683.885699635013;4293.788952893528;4198.704719391249;4351.186500256672;4435.313036566596;4624.446828830661;4763.697119969534;4712.254802252276;4593.511017378808;4856.621803352836;5144.973679572342;5379.397186337587;5457.594029265474;5388.285348826418;5171.128536470471;5354.0381824858205;5766.682518474892;5894.860954200247;5833.00701081111;6097.315645347249;6369.764843552663;6309.408302667654;6202.170821661955;5914.926171085524;5670.205800125539;5722.56254826105;5754.7894738246;5814.817731040417;6047.711397695824;6125.640166568406;6321.10477889701;5896.232903886816;5801.208714852082;5850.972188473388;5501.560791859283;5338.415535791961;5324.2381817238775;5430.050407506505;5591.023370030072;5564.584097976209;5430.1375189642795;5066.241245445301;5022.873453532905;5041.657735130774;4995.434921774201;4983.309027873709;4931.248297975118;4741.638889970847;4548.861135629487;4629.013768446157;4129.057136966522;4378.889745207793;4554.104972919764;4062.311972259633;3620.3201708563174;3425.4490183236267;3579.920692204987;3657.1226997782114;3773.067293175054;3447.195634740732;3183.8631886453477;3126.021478896105;2715.0939458824805;2497.949383118994
1436.932306068351;1362.501913002695;1432.4456575520599;1553.6697581384888;1783.8539238035346;1879.1518569423333;2160.8464889338484;1913.3982181596384;1695.2012258561253;1910.9232638803724;1899.3577324744165;1864.0575965852631;2013.5025807050824;1993.6254347848953;2068.011696157898;2142.758670318818;2178.520951755485;2368.5469518320233;2554.6695493584575;2236.4147890643435;2074.7204598585613;1900.803558023782;1836.651359896684;1958.8565015425638;1969.1419936950788;1925.904034374813;1759.435243950099;1862.056675392968;1615.3539899499;1770.5700307659226;1935.9946252220152;1653.2654966671762;1592.7976325800655;1626.4279393747456;1668.8407704286856;1789.340107979041;2038.302526211176;1683.0146411677242;1613.1011564642076;1490.1344673378908;1344.135902773537;1272.495279558314;1249.1578780159316;1222.7903822508915;1285.0937409523708;1350.1917105575549;1388.471500773504;1555.549454946945;1172.3765866566096;1100.929431219081;1099.709177489177;1112.305254253918;1148.277213906647;1178.5745986483003;1123.5247011836382;1151.397606165463;1151.1357735367383;1257.460250479597;1431.224084997094;1301.333145581635;1531.2385314200992;1525.3308481976392;1471.72195974246;1484.3329053799825;1573.2821641160363;1688.2114587892274;1721.6139195870028;2007.7447729705873;2183.250369218985;2399.501261481242;1886.3795961033657;1741.9100765161938;1807.018503803186;1914.5904720377348;2054.8242438912584;2185.4971539722037;2202.5736068872675;2466.2104995579357;2347.2391969025566;2420.408247525813;2505.9184098396972;2592.056273461979;2677.1914981294894;2757.4475843392047;2945.2515906022463;3019.622745045738;3303.998838780595;3468.715111837756;3645.6822729601;3805.80595782405;4017.239155744892;3821.926515053159;3663.476755939845;3813.8353610405366;4063.023563954628;3998.4780929686585;4384.517572692339;4623.259863769206;4111.42410462644;3884.1025081394973;3987.095004604247;4094.286778804986;4202.041973881822;4305.783058256339;4405.772227957893;4503.222096315742;4797.400112111422;4918.3796164217465;5185.7718633459635;5427.235681750702;5475.709442303512;5306.62595675594;5260.3334145299905;5481.454477147447;5642.555872475239;5924.074767731132;5915.106432715809;6119.283889998063;6336.818987496832;5932.210982106792;5796.968668406755;5704.636399849376;5836.150408481684;5807.323212769899;5836.670937115918;5949.293507180766;6055.962429021431;6340.537793859232;6289.738481304808;5877.979560147003;5652.335461069848;5519.593589954315;5403.421598609406;5534.957495169583;5501.060210009991;5531.560489394356;5674.279851183026;5719.229557386119;5462.477986840882;5238.628025041341;5123.7908174945405;4955.334784328486;4813.382767619734;4967.116201188229;5110.529820957441;5023.350465028435;4603.860669134218;4263.960673096048;4028.98190161595;4464.764169060967;4119.652118774134;3687.3026312339007;3554.331117397349;3674.161456857427;3885.7521061868674;3844.678889831356;3722.463214331642;3571.9236249695687;3619.122782977275;3260.8455030657497;3158.602367930119;2603.2747989876952
1462.407323947894;1523.0781790452493;1414.6606242534235;1540.4076673256377;1603.6146867649732;1753.0383866222883;1770.2839294230307;1653.332872022931;1889.3946292620622;1790.1089439211282;1949.4137626677702;2007.9298535014586;1921.4860693980636;1988.6414291466754;2054.0042953467746;2063.2676848117753;2158.6519839412567;2330.8080387781947;2212.924943887968;2026.4861739053704;1913.4195695618337;1791.7442083455753;1749.4202134297966;1897.594383876839;1950.9235096747125;1950.9669032463307;1821.2600111729325;1667.8558268014267;1570.0162346267398;1682.048471568045;1626.2752062523168;1623.3436600116656;1683.026434714664;1660.0115208490088;1739.190460761797;1822.2031516596753;1726.1994666237388;1460.128456591433;1771.641610853805;1341.979204925423;1297.6701695659644;1200.1081217286592;1208.5942487804546;1303.322091122198;1331.5777014078494;1543.6822189215582;1238.0056477129515;1430.9142210755226;1096.3850067563958;1096.4217032984093;1099.2491376354742;1096.133577265703;1126.7944932846758;1155.3468817140038;1123.6785347959071;1123.7363751931234;1121.6649489528954;1169.5667843856827;1188.5693066323288;1465.1074946634308;1518.4208430042745;1552.844427422573;1442.1445495851094;1435.3620812777808;1496.0810357135351;1547.3152417663441;1758.4884303249837;1803.4522191213982;1948.6248794585708;2243.495636865183;1681.8067150624638;1719.6274319865424;1972.101913106113;2154.557476811282;2349.275991948557;2304.32103527688;2405.3508451547696;2526.3234134612376;2595.6533123199997;2505.566644409858;2614.9815672839586;2672.531733521403;2803.410026441401;2873.808997230989;2975.179562619036;3205.447753463667;3376.6717738471834;3611.5055731232296;3823.0415708321225;3822.9153752813536;3818.0967914321327;3697.6012263348166;3803.2568884495076;3848.1436980988656;4151.769340695821;4195.58930339037;4252.038010433673;4550.870843130304;3783.026776476241;4206.887255172774;4234.505498220675;4368.965981349757;4496.581287397343;4417.042989978772;4568.180851130364;4888.446863879653;4711.79555757404;5211.699869790076;5400.762980599354;5429.555079507108;5497.911982838257;5395.930847812256;5332.296168562105;5538.779414696077;5635.868626360005;5702.628244885253;5928.441548504274;6228.0655016700275;6277.05654387402;5803.530962472827;5746.8997941120815;5847.988002463015;5776.429124116983;5864.32359623539;5957.710474385791;5930.677154275665;6213.127819273353;6159.9225682673605;5885.507744243621;5744.610793342692;5619.022212431097;5476.645020468883;5583.832345960629;5547.219967520097;5762.91335570376;5654.831555952609;5724.151761307541;5733.426725945683;5453.96931982366;5316.465371905306;5177.2443094364235;5060.091173210033;4919.827136746222;4688.69057787358;4928.056043560431;4642.442159725432;4427.6471986606775;4315.989631732455;4196.7475015983555;3930.8039546431137;3803.8296549879506;3682.390960735899;3892.1048743753036;3767.654081081034;3884.2646548042794;3897.5612861331692;3846.631401199281;4016.245005686562;3850.271795788525;3584.870277829853;2949.71806285984;2592.4122924504463
1645.8699421314614;1520.7383442775235;1492.2490579132718;1467.7050703696168;1708.4900310373496;1551.6954023130884;1600.0914449985603;1741.6270820189602;1820.1499745432502;2029.0371318299176;1992.2357088776625;2103.9203349215322;2085.9103934980476;1959.3152977227865;1995.805913041805;2015.1929633760374;2112.207174006485;2258.2155439904636;2250.644707057849;2184.6670466326377;1975.1962721825794;2100.273386831661;1697.8680161870152;1749.2723449603673;1938.413196354958;1945.3429635771727;1996.4968270223235;1853.4525166029716;1653.090519195678;1525.695333824885;1639.3992842917442;1671.3591197286296;1645.9541710748363;1750.6826781056798;1813.7283550320744;1971.9053247066486;1948.073343804902;1825.941777924335;1298.697488920257;1266.8037941468888;1191.9127519896792;1188.3910760350577;1277.451447534324;1325.512730246578;1516.2959491399452;1459.904457070029;1097.3162341407756;1098.043886735431;1097.084388605229;1096.497473322735;1098.1747538676887;1095.9916608598833;1233.5545283583897;1263.9443930350772;1168.4398712674629;1323.8947208111667;1123.2241672652726;1126.4216755779198;1264.54979548265;1204.9777992162058;1542.6182077468875;1521.6159564313339;1470.2669175019746;1423.7743261806718;1406.36354507321;1463.3782711546182;1510.391216664154;1731.8223938694646;1675.5015781485217;2052.0932580117333;1631.593600322054;1801.2488158594779;1930.4727100547261;2078.7644054946304;2366.7418678046297;2331.6834072709717;2526.1503278189766;2614.743213508691;2698.150199583297;2754.0655296245413;2670.64808056165;2810.0760683203143;2891.910947872854;2969.6105402566845;3129.5598771072036;3399.782663278226;3431.8447604187995;3604.600625835569;3507.8506296920195;3771.6963682173036;3861.3863526586338;3755.469257255222;3842.2884112164356;3959.8376027970517;3913.16303944245;4017.6361879807264;4191.4149786351745;4467.151119292252;3688.5372653628847;4430.919942649116;4511.730522496903;4632.273450628982;4731.783733059555;4716.5803217891425;4761.035444261844;5003.96267749834;5058.19318412012;5056.405282003903;5354.305106860737;5542.576734481596;5583.294717898401;5505.531405485986;5396.898823009522;5429.207667584316;5563.9290184189595;5694.222928884077;5828.127150405793;6176.511590857068;5776.862079377614;5708.877203485372;5794.043358262368;5827.481099429151;5882.8488365964295;5929.62698105374;6034.990184211405;6112.739353115121;6119.085938360269;6339.003938713991;5968.358176547958;5657.154207237694;5538.772962027389;5666.305856236861;5642.08940270868;5721.894152360957;5759.056456968865;5867.178276243434;5863.795605252646;5739.314794524082;5533.743443369878;5489.7868089126005;5361.592964468661;5102.022995488903;4868.489105705119;4781.426042685482;4587.588268505468;4459.477624028256;4328.278536996392;4181.884037071601;4055.8671754882153;4039.34326690517;3848.382234049259;4004.8211388393265;3946.794157635737;4070.4966502395137;3962.6822364650707;4209.972991256669;4135.1479119905;4007.3440406005357;3378.321783573939;3004.7429464004545;2718.3130650126022;2640.157162539418
1673.85365102592;1756.4416819709368;1561.2425572636157;1527.6951420579662;1501.2637393633968;1736.0726755938895;1772.8639797860278;1654.6879474402904;1829.521897554575;1872.940888204279;1981.9841503193447;2125.7737389741033;2153.563889630851;2094.0844619234695;1996.4212134834415;1921.737918523615;2001.7056878723315;2094.0976264102064;2068.4376929283735;2067.757346241644;2252.3524112299046;1833.1686975615694;1631.3998010083887;1864.5982337839414;1684.9127488992472;1762.9583245170625;1862.5142076020966;1527.8639182265324;1503.0564204952225;1685.7994633845374;1559.5299424401792;1658.3202148098508;1750.5382036536666;1776.1141984838678;1949.865537406693;1930.8057620488244;1524.302846594701;1332.5874994954543;1231.8471500495302;1205.5260834210235;1172.7405333835673;1229.232054729796;1241.0114645553735;1475.865996723769;1399.1320311020909;1101.2465791279697;1096.8967339408123;1097.596407022234;1096.700865846998;1096.5378778293657;1097.6740096115504;1212.152892322194;1177.8203084134639;1491.2048558002425;1457.3674019843966;1309.8123575876616;1113.9707863425992;1113.7087618537817;1112.5107419794726;1273.3422301436262;1499.9047203994533;1556.1558047234203;1558.1520880216303;1474.0091075334376;1432.6904688977556;1383.4773646502572;1463.6656317378965;1432.872613373369;1476.0113299110699;1766.7192564202005;1553.42107837222;1729.2952776520879;1771.6970118830768;1973.0101086491313;2022.5592676617125;2241.820829727849;2381.3965581345064;2440.0909889791037;2687.5389894015507;2796.247928395085;2912.8235099783624;2977.1790538854502;3020.1896370739814;3125.7130314849464;3224.9192591789943;3171.4369410738727;3297.483122880717;3224.8747226415007;3512.2399393122278;3692.301320137897;3879.957244809413;3856.4098724697506;3885.9905439194963;3906.9156619209552;3687.4408341740263;3887.855737766581;4109.157492126846;4385.366784853868;3588.631016640029;4026.9394611822518;4364.599139990953;4701.785670355248;4545.702278423807;4530.833545740407;4625.243315295393;4944.649180563242;5134.714131654965;5104.544994449348;5204.256857239533;5515.245394467287;5416.782000153068;5575.961366797688;5520.00682732618;5458.195439946274;5556.983434281878;5640.757726981354;5722.462910763103;5767.485732913323;5684.061191308905;5766.401210371652;5836.796136540315;5902.177178083626;5939.573501971849;6032.384034400706;6086.940346024287;6262.71117122424;6426.372120482885;6020.161764262759;5706.665995996327;5623.221502204309;5684.517145622913;5695.302048413785;5845.45748985729;5859.465679542536;5964.366573847892;5994.484530944945;5999.805242653523;5896.283643130666;5694.764994731408;5592.625276609728;5296.923267147612;5225.8144112981645;5033.64129281499;4877.833423126412;4654.276408974957;4582.230067779731;4409.201747030699;4257.987988004387;4274.139527308336;4071.8354120564754;4071.425824844373;4106.007518563651;4313.296826639184;4086.1926373844462;4070.8104549460704;4204.906674164253;3621.219765316865;3430.0172353123007;3222.4664498964903;2882.9093999160523;2767.664408531564;2644.5475730772305
1720.4778794227777;1752.7435464388655;1678.7756631681304;1608.422965978184;1569.4651535330022;1650.1320210285585;1858.438191763481;1839.0847826287882;1710.7779832796496;1764.070320596009;1883.7956728205036;2024.375367939544;2055.94231286621;2131.8882140852893;2071.903902618463;1946.3762877198214;1872.3063694957582;2182.4761962540197;1859.0243413330809;2026.0033865910245;1964.2202327896066;1702.8339624536447;1681.3555017918807;1587.4923627882445;1532.9929967612097;1814.0714439018875;1547.1969963325137;1464.5445499124608;1673.8256547903566;1671.1107700350758;1710.2706451261101;1740.9741055572786;1792.1827705338646;1946.8111175565764;1920.5948779487817;1419.7847892046357;1271.8090067740723;1197.4398558965117;1147.1493361793691;1160.9670019467221;1246.7181982265056;1201.0912643756337;1425.8077769840256;1313.4731356568586;1096.8666899073837;1096.6123076889621;1097.843659673079;1097.1070507520858;1098.8416807140443;1098.2244393672245;1096.6140679443079;1250.3272093135406;1464.6901432685027;1237.086088485877;1118.7371474192673;1111.2173582204573;1113.2187894316958;1112.2417323990903;1112.5214809653557;1192.5510919093522;1305.782005003462;1480.5017675129757;1568.8656176504837;1530.6379230142102;1389.4977474474108;1400.9447315101006;1357.775519154241;1340.0839895494764;1401.5527120105817;1472.7184936243002;1492.1680406870819;1532.091536344784;1678.4779403011717;1755.2686452839953;1939.561815015727;2062.931254071139;2230.0443932672706;2282.007056930668;2545.5175762094195;2762.686487544548;2704.580854096529;2952.5166377529786;3185.857990391667;2830.4655738846695;2836.25068602435;3026.56125104909;2932.1020526387338;3379.1331585550224;3340.5942142922877;3625.2837517253356;3729.1004576113555;3761.810275114425;3933.9814047722402;3780.7409154775796;3533.7782696873783;3705.8542762217367;4205.56404552162;3744.436155074847;3487.6376545069925;3971.4441947899577;4049.3833805835247;4342.370416215504;4234.990399157364;4321.587318227477;4565.493073075512;4693.807351035815;4762.801351216714;4997.484539818515;5158.769431728469;5166.234822922997;5476.511454727146;5408.499366417978;5513.401607540778;5522.381213995266;5507.886159573316;5559.454008268533;5606.090710318507;5647.468650980556;5726.839431928383;5859.371047398592;5895.78289380171;6013.130996194019;6103.387503115542;6132.755853094373;6223.10864303091;6307.948839216215;6062.831940783841;5815.760692973177;5918.5639884156535;5962.665055095073;5600.096338366522;5619.123254493919;5797.271750732707;5816.563885552814;5956.6819621573995;5963.723645770455;6142.213008820143;6099.374059676153;6018.304176525202;5598.539706541409;5557.067664247565;5296.818056533294;5192.9720273005705;4982.791165172827;4861.834990137135;4764.3378893194185;4510.794658181204;4502.798246333588;4290.793792800488;4259.026747051266;4199.694694695807;4059.6153342951975;4250.446802307947;3830.142720086589;4048.685167187933;3937.698597367449;3516.128362495957;3275.08229512428;3047.212578984543;2966.477985517721;2789.226967665063;2811.683231485971
1680.7456362808607;1945.4661134778316;1792.210888580158;1754.1917226893775;1643.1114256336377;1869.8004900427522;1958.4437633320304;1957.399947319016;1956.610158647858;1841.9231093511717;1814.872587357947;1910.267263806959;2022.7353510145513;2097.493824872059;2095.1120850968373;1975.6469137277327;1915.2637535153972;1815.0409008055094;1764.8490644346584;1860.1212928965342;1891.0305730398604;1887.412894142074;1809.8065758214534;1630.9143143650554;1646.229256225689;1479.1615507572033;1421.7873015867508;1578.5765255628166;1605.5723221206908;1709.9273057108867;1871.4692080804525;1973.9371899139396;1678.4839369055417;1913.2674733114782;1435.1798190073132;1378.480889970684;1170.2041459144707;1137.1834376853767;1146.739339132671;1172.088673127475;1225.0767217527932;1384.523131994425;1233.0545838658982;1096.4665563511767;1096.552444952315;1096.6310386205078;1097.1389638664477;1097.2229732642895;1097.3977131929114;1100.8291461084577;1368.1672381612861;1114.2169600358784;1321.7539224565203;1105.6889971964297;1108.75873729998;1110.6436031732092;1112.765783885593;1113.043249432017;1114.8538512623745;1147.6375877507376;1255.2992551951988;1241.4030037397697;1660.831838470801;1418.3955664823143;1441.70763391351;1408.8807264465922;1342.5501438723159;1330.8293704732746;1396.5126512874267;1423.690771176548;1429.2728680665214;1507.0574051794902;1597.5609986913205;1717.7729345853986;1867.3841657247976;1975.571899800554;2068.4541540293776;2208.2502056944495;2353.7569673047783;2362.326447715701;2656.064489533922;2755.2828476766745;3084.398169472197;2553.4392727964914;2789.5559337402556;2708.261827753583;3024.7834565423;3099.614715688266;3325.8244409013323;3396.8431380149314;3528.1646828418916;3806.8634830292713;3817.400158536979;3793.556861811403;3659.298278916959;3403.6390506953594;3836.149601460027;3392.2918963820575;3827.8814078591777;3643.8103914462336;3789.9361376511715;3945.550406439166;4084.4041624027586;4226.263755562362;4370.849303863083;4508.877551239244;4837.660528569898;4886.8610781904135;4958.458258453147;5211.044663530368;5203.313679104823;5322.551167165768;5402.355114110364;5618.911359721822;5576.528538087005;5630.450962232226;5655.713189982143;5736.992017112798;5803.556753795212;5823.75173983306;5996.545073060155;6120.531151873733;6318.870632925027;6133.8624352189;6195.621215249634;6267.544640973205;6047.617583643572;6334.901077343984;6216.87824618655;5768.695669764411;5471.69570714813;5600.086440637919;5586.577982154373;5785.3043775254955;5727.328529880877;5954.25163702234;6039.962394211694;5595.311777076564;5569.954255473938;5415.369428579148;5727.044415296476;5292.982481701679;5272.821457058294;5162.398868498358;5140.239530979952;4826.464710773154;4723.386706977938;4540.816066479617;4452.206278308928;4250.956727116455;4033.6477816973083;3843.3685431597187;4137.2892379668365;3695.583861390017;4006.0416408411684;4089.6596950333624;3755.189934452076;3547.3618730142516;3360.545485546374;3039.8794535107954;2704.7698015172527;2878.0934661479987
1942.0533686851531;1954.5442357889615;1882.865341662049;1714.0789341003847;1837.983808867847;1814.3043841340468;2071.9107771450317;2270.1632541895124;2143.8753534218604;2014.638646027298;1973.3818100107437;1862.4909145050615;1953.4867913290655;2067.126516199871;2107.9070140023605;2073.9478722904523;1979.947653356372;1916.923851909969;1836.5305525126741;1724.0611463125833;1819.1100134456974;1803.365235816962;1902.3110703375605;1814.855221107573;1751.109779251522;1611.295997575031;1638.58455804203;1395.1731468067392;1469.4797043594963;1608.3844797463562;1704.0035944066403;1724.989989857857;1406.2397220805306;1431.7980879060733;1296.5390754657733;1178.6077764206725;1128.408457883333;1133.3926826785046;1147.9005285831863;1216.5264846051878;1351.7990755821638;1184.35218964445;1096.4324332976262;1096.457090906179;1096.6407503823266;1096.6437290889662;1097.0774758835319;1097.3916924808477;1098.0557301904878;1186.8447104061593;1149.9233797255683;1101.5289533166729;1113.85610245233;1105.9190883002143;1108.1029193431482;1110.9067193900237;1113.6027747049402;1116.0370396105068;1115.9388557300472;1122.5964092411004;1130.4023354081196;1328.1520417978309;1208.7730502083118;1181.6212849251492;1436.3493503527443;1252.410465752264;1294.97263340761;1412.220269298121;1348.0144522155133;1359.1439031580267;1479.1741297268618;1526.5601586055373;1639.7855813613405;1760.9449307118311;1742.1527225247855;1841.2293819563874;1972.6817891619676;2077.2906491323;2017.2583110188398;2460.691130273104;2507.6462452106343;2947.1584726400342;2727.591835133212;2398.1113712713513;2522.303674500341;2639.6703013881397;2832.439728235311;3036.647528942336;3143.941099051708;3283.1460605355305;3542.948975301485;3570.9433476595023;3799.5393485651575;3813.0636880748334;4049.2444547415043;3584.131802747309;3274.361961323344;3936.1960480122816;3878.0075068580845;4048.2483553719594;3948.778645824181;4187.928230528121;4286.750293973111;4447.896314535312;4573.679863294881;4736.700406852427;4637.788032001926;4788.39766111986;5058.585830261899;5031.6721239542785;5164.928331479025;5257.656675500902;5529.8544049065495;5652.490425697395;5663.4876843647035;5714.191280495412;5816.062911596957;5793.922122718624;5931.603107675912;6016.7199973553525;6025.212265609833;6320.545568973877;5997.295531903708;5800.382388698714;6025.4981484860455;6140.551654217199;6250.882463353855;5921.1237579434055;5640.167936348595;5553.197173559576;5786.2085946270745;5427.258725657719;5539.54200569507;5572.236169646523;5681.222044612105;6010.771607255654;5982.379866683095;5626.424304237262;5246.981311134471;5459.009566726583;5135.966529385469;4944.177067517552;4988.2898288651695;5210.076685186406;5181.997937606341;5028.696728598501;4754.449991376551;4697.028381468981;4509.476946157319;4366.083983489038;4125.062039175752;3956.644239277175;3643.193976206039;3548.4740417209778;3809.394545867158;3944.1133517165517;3491.84714686763;3156.37638553941;2745.173821949523;2898.671462487162;2475.000297382393;2660.013377992661
1954.2564846194946;2254.3082455894246;1889.1621944724175;1808.5023630032347;1861.3402573767053;2015.2492094061945;2108.8589231399083;2362.2079935955144;2272.6019524583253;2181.9166314849563;2044.3897947503965;2001.3330542370932;1906.5977987847536;2079.5691565505567;2029.1968901807622;2196.1897394543494;2145.812149110772;2022.3627550266128;1920.4771745554253;1808.9673621892953;1672.791737032876;1786.9357007614553;1874.993519451099;1996.4501888354507;1831.5683549366095;1807.5677062205486;1814.8936240924977;1350.8351052384523;1362.65785297797;1475.530757454877;1727.320093820771;1860.4142745814725;1704.6111979344405;1195.6196679085115;1411.2428103824077;1120.9366571581154;1122.547804147487;1146.9120027180884;1142.5775607482074;1340.0769758134047;1174.0713312356083;1096.418888863098;1096.6587196228334;1096.581832379989;1096.681523930089;1096.7999665628527;1097.101290822452;1097.5485509445657;1098.2662016801064;1099.3865717672338;1100.9241516403572;1102.302808007642;1103.7713883067063;1105.4885161505813;1108.0817845015745;1111.1448701976951;1114.3325955872865;1117.5700334238304;1120.7124633537487;1122.746499378878;1130.1368547417546;1147.2288940693284;1172.0734301800462;1221.4882070150015;1220.2085800161694;1251.9778169590677;1252.799961737112;1291.4701746300584;1280.5126716166506;1291.596353210875;1284.3261087947703;1328.153524861757;1632.4029669416232;1525.5595107337213;1632.5221708193367;2054.535553627995;1728.7269013529185;1729.0013195152605;2077.915091770281;2166.765214224576;2417.9033348521025;2782.6973715511767;2295.7476226239123;2349.1398816963865;2412.6246954877606;2584.062655177385;2763.738583012977;2938.3633028985196;3053.931819359059;3230.590540465608;3377.231052811425;3492.6934182111445;3396.253754781759;3642.537576579656;4016.2870389252657;3159.207167115811;3512.920723222979;3941.234990333949;4122.309444389032;4303.430855107241;4436.413677983632;4386.696546785095;4646.7662920830535;4650.0647897705885;4659.240503437056;4835.236502496866;4867.481762913062;4864.399514716486;4883.552150652474;5005.613242215718;5113.152685896673;5253.274972390459;5333.370711445805;5407.129479905336;5667.180503670159;5797.926490683667;6019.304227741526;5942.856224978334;5899.036728389636;6218.312835137973;6223.311772159472;5652.4930985405335;5553.761442144574;6184.7062608598935;5822.770555151259;5902.0876400555535;6037.29434879216;5785.063586650898;5893.344287257574;5796.962293899003;5509.295443812083;5345.826793129035;5473.096511303738;5427.169721070232;5643.167117002473;5897.819882278507;5565.439703138998;5329.085511657468;5197.8831217762645;4976.867372122763;5100.9350253816465;4758.759709639972;4959.263804110777;4986.860744850561;5143.8326551222935;5073.886684338598;5045.465486689295;4770.9985570238405;4720.13122192156;4433.613430942305;4163.903987514786;4063.752151368544;3812.8618176204245;3435.650891414576;3610.974221584209;3908.40922221814;3283.23263743785;2911.3851475328474;2580.525256766994;2400.0010059806928;2329.0601937516003;2618.2775947277523
2176.6838511803053;2077.333223388132;1862.5801607753392;1926.8331810800073;1986.476824157624;2062.7323916109626;2225.778342995003;2503.8994784219876;2470.60669722523;2280.7685286759133;2226.2576532062885;2079.4370594237835;2093.2440746151833;1953.2110090673223;2080.5615060418486;2187.2790462043085;2283.133613619997;2266.142248487473;2006.997332716196;1875.192779928364;1824.7581893143151;1616.7351392528299;1710.1988769600657;1735.7740386785772;2019.6610243320756;1984.9202070890296;1476.318460501312;1314.138919651668;1311.2019782808952;1398.5215270361005;1771.6948079668864;1639.9941120250696;1248.9207888397245;1122.0310470250183;1118.4421895169703;1114.7651898605627;1153.4437979730983;1129.0526070064357;1343.3979673405302;1162.8839338327484;1096.420340659667;1096.4577508857537;1096.7802503115108;1096.458772085136;1096.561713372259;1096.7091676347459;1097.1260024952144;1097.5984493418982;1098.39194436243;1099.4472440838854;1100.587068360881;1102.0697503301885;1103.9575324028647;1105.9569200877872;1108.1299723870984;1111.3674997763083;1114.714542422585;1118.5970164961927;1122.7218096089427;1126.689510994322;1131.466900003914;1147.298799940742;1165.26776630623;1190.9668164738855;1217.0876935698961;1220.768490815707;1233.2700788644975;1231.4749294066332;1234.8771868153822;1235.639247988655;1238.7248180795796;1266.9932117203243;1352.389421099886;1412.4818736916968;1993.8203622519477;1595.9011930423321;1548.520273520552;1722.0486356057636;1944.1909847081351;2221.2913483152006;2340.68514350464;2602.296860209265;2201.7367672773144;2245.903983587701;2553.836733246634;2734.800717338391;2776.7838357473975;2800.890453312927;3007.1863794483033;3131.861166494933;3376.449836033211;3102.757009950694;3239.9502688406137;3847.0083190404794;3489.937298026339;3045.415342176757;3544.5576455083074;3657.8388203091463;4083.223017952346;4157.578235146524;4630.053164261532;4376.788626192994;4351.39636850028;4279.0211020154175;4632.8505822440175;4653.3996572113365;4827.36158023792;4894.270093170055;5133.238876888667;4966.990020066856;5043.9696142760595;5142.005224799237;5251.584918542072;5424.730524131062;5561.200431763078;5645.7310481180575;5902.502206330868;5575.043561316059;6135.594273188111;5750.760068214098;5682.6436967177615;5349.101799381472;5608.66206721239;5702.290163659287;5578.256801849748;5773.546375111719;5785.230043981181;5921.589767384503;5896.791216206248;5766.609899447887;5662.891723313785;5717.577777690993;5274.733828186582;5389.295495461957;5537.692529613358;5780.72790381939;5403.774241501803;5170.295373249624;4946.2517878226245;4863.2972258333975;4715.076840740039;4584.760202066482;4697.232673398204;4921.857437166933;4898.395421815989;4934.330724839176;5166.162260989558;5127.645252686387;4861.238494369287;4782.670423500251;4536.7082277364825;4257.435540342274;3742.517613902549;3575.180621702393;3293.389642262977;3663.0030884319176;3074.166914550173;2771.784234292265;2878.2628522435816;2679.7032995821146;2230.6349976448646;2340.9948148884805
1939.1648631656435;2007.4791664147615;2047.26217651566;1992.3078862322463;2093.527448988417;2158.336500625119;2293.8662208274854;2599.32870043825;2516.6150776423437;2417.7196740748395;2481.6865954718314;2402.055452617554;2093.547024736248;2002.1394388773579;2101.1633975498453;2275.666081381807;2392.6509499811964;2282.56215303303;2146.021267827644;2058.4335646618665;1942.7981576156226;1578.9193463278507;1560.514143977718;1686.7394747403296;1704.7336393990226;1506.1717762351063;1341.9869807132563;1338.0331858385252;1270.5179370909464;1403.996338572907;1592.1864185610084;1164.1222409233706;1137.2686271589614;1122.3209272432991;1117.8020015076117;1111.9569565065585;1109.7055755369547;1293.193986647048;1193.5032436823299;1096.5384655044595;1096.5656279295358;1096.3395874576509;1096.4677565478682;1096.4638293761104;1096.8245572448554;1096.780114349061;1097.041579434569;1097.4699511961953;1098.2580507318885;1099.406098890392;1100.6827634137726;1102.201721354741;1103.5958979446218;1105.901070070635;1108.6223104224132;1111.376104772185;1115.1522111312615;1118.988973898277;1123.6519421337666;1129.573047816838;1135.3028522168129;1147.9777990957473;1165.7727991941647;1188.4501043562095;1190.7817248277042;1190.4285896391339;1192.453710090715;1195.3455033874302;1196.9639121723221;1199.8593190806655;1198.5305451061417;1241.6521567546824;1247.1325215060997;1462.92315737247;1394.9869315785127;1412.8537181048432;1512.197627264506;1827.6134702404925;1890.2722426676792;2099.780789329833;2214.6438899135137;2447.491518193896;2098.9692924613755;2224.0780684382416;2605.666116110742;2744.5241405956976;2564.380552169262;2862.196070597445;2967.6382647023347;3049.923136518235;3068.850518023014;2867.97110607143;3171.2807820054395;3011.3968029528805;2925.7321496657332;3261.731570953946;3229.098978986838;3627.7049187220773;3902.5389013194917;4381.665115465617;4488.9869289451035;3916.4204756515173;3937.483327603789;4248.8649990800495;4308.08158382817;4525.075380112107;4647.692815017447;4878.947856141178;4829.776681567345;5062.888329362132;4891.594376819793;5065.359584512731;5204.280936269858;5272.3768748676885;5317.195437014265;5597.7698959850895;5364.383242859611;5627.7936045790575;5766.355922487348;5323.691050947682;5912.978401189977;5163.437198124996;5366.532863148884;5378.4195625774955;5622.517779309843;5581.270453366171;5812.865766540364;5694.801578352508;5875.166659019091;5921.950754456719;5695.626930172293;5729.774436234316;5186.576891812929;5319.114588007314;5551.543778702642;5687.138815441676;5231.956295407001;5129.159990145955;4813.946846225775;4670.66587160534;4575.432452990536;4461.075706284616;4647.088112472818;4713.632101764087;4655.2984267304455;4870.757399198696;5138.471500764672;4600.534535190943;4565.282156398422;4668.663607241971;4035.193554661395;3847.8891350164195;3593.5661627544487;3496.5470527977386;3519.2336177843526;3122.907772661586;2946.1719906747358;3247.2968611802826;3061.2272100762975;2601.4254513165624;2293.7186501031556;2093.970533926642
2017.958025134486;2032.6688930060718;1934.275311336658;2093.303909425048;2165.443991665512;2277.672274241537;2409.390146038034;2550.4872381780633;2794.209133202453;2702.215038330516;2535.324305350283;2174.387270643864;2044.2362653031805;2130.2625055538147;2157.7154208868305;2268.5961323990596;2518.4770098509807;2418.3491074044787;2395.239135864953;2128.582764735672;1722.1355242061545;1703.0515422761919;1509.0913077268224;1527.173614364935;1706.5120508425061;1613.2086177807842;1419.961660555803;1291.8555241067756;1262.4955991024567;1233.933213105252;1198.4372819010482;1161.8832458313555;1140.6094385536053;1120.9779799180828;1115.9504554498171;1107.9428303166246;1301.108327567179;1259.4832509216344;1096.3476248522393;1096.7334370537678;1096.5479924022234;1096.3861754665004;1096.4208714424558;1096.4963593900443;1096.5080352345558;1097.0033680470656;1096.8266104187246;1097.411982904493;1098.3801319399317;1099.3870652894761;1100.4881636650966;1102.0117460081296;1104.063891183915;1105.9303815501698;1108.5460663737476;1111.8475374680206;1115.158521667866;1119.4888571735542;1123.836515256276;1129.5606403308548;1137.116811490533;1148.582767453819;1164.5920379616173;1168.3382736839385;1168.1213486859615;1169.4122174250056;1175.0705664657871;1181.5474877438887;1189.7366295183065;1196.0198257633301;1200.6802381133662;1211.6824876998176;1222.6560013772591;1245.9204860573368;1306.7507215190958;1348.6061446376325;1546.9919928751615;1603.7581145239747;1838.2717174207337;1986.5462001027518;2051.6498301121946;2335.7142679299304;1986.6857552670845;2202.499783783339;2264.594152254266;2304.6448996839845;2730.4366947630097;3012.6658285845224;2748.6009690616147;2751.37320556702;3190.0721885289686;2904.7479820024682;2678.695982640069;2802.7939709391876;3192.996430045666;3451.792479989861;3849.037229419897;3523.770702439283;4168.393540601296;3972.525574620122;3632.7109427709547;3674.9392482679277;3870.6280560505975;4043.645919893872;4204.428314958194;4448.585378140646;4533.531943963337;4678.440931863958;5017.131579488958;4757.100827853928;5135.32735575051;5034.071445228052;5178.242424500155;5105.665564088946;5201.30876695031;5172.120013835465;5480.6925720672025;5865.047953947267;5844.20576479034;5558.259840618668;5083.730421063069;5004.03686056626;5190.950940071413;5453.27483414477;5470.482827833994;5546.542991196167;5545.347981300152;5668.009328909853;5712.926843542191;5829.945977873966;5433.203948412534;5606.124817126229;5105.877984464703;5258.271893482982;5482.105774106494;5627.428419695891;5079.999036268754;4936.254773114358;4759.9086918355215;4847.525156456541;4802.783672770847;4627.894014914244;4344.660291294799;4417.357267439513;4568.03975850999;4739.014923540525;4717.563342970375;4413.1448566051395;4132.0692487473925;4058.6283759406715;3793.9242338831764;3654.043117375314;3477.5023285508596;3352.7444504304513;3597.986427401307;3491.14316556786;3448.5450268117947;3370.800471948074;3010.598557383557;2771.9368679184818;2462.1111751268345;2179.385968255914
1851.8063215353914;1860.3396578549427;1968.797625553154;2062.5680802869683;2234.1240712883127;2380.934883112647;2584.9244881961804;2653.645437708431;2761.78887286029;2422.0460504670336;2196.682434644251;2083.4516803262886;2149.644948711394;2157.4818755499537;2280.2751382290917;2378.0133308328423;2484.996654697732;2565.6918604456587;2244.595375281334;1896.132860256117;1879.546669318971;1665.5987150327173;1543.2473172569853;1434.8118640622333;1556.6759053836095;1524.9638424572095;1559.3097423502713;1307.673986976854;1277.290210720534;1203.0482338739976;1198.3248499450233;1168.1074417684126;1141.7430856106084;1122.4904087256236;1113.286419398246;1106.143607865136;1103.9841958811148;1099.1210934646124;1097.0297380900356;1096.9551616453596;1096.3402707312575;1096.3717030158368;1096.5500436009625;1096.4690168389375;1096.6675775246194;1096.8271167834105;1097.034549621907;1097.5687804489548;1098.329722685205;1099.3005048492164;1100.5022867448893;1102.0610522151878;1103.998804494203;1106.393500389157;1108.8020475518956;1111.7562474465362;1115.5984386941782;1119.5665430631666;1124.3470222274264;1129.3054835062653;1137.2078071533201;1147.9513939724325;1152.9820654012565;1156.5446683995342;1162.9683453721932;1168.6170405821508;1175.4889621952966;1181.4266647444106;1188.609346204717;1196.7711895374277;1204.5513247181862;1211.3357256494191;1224.5926065990202;1238.4001859107875;1259.8933856289996;1379.9364744934855;1399.790059189002;1562.6678817969241;1700.763225143105;1813.6205504067157;2255.8127643004655;2180.109774971991;1870.76386828664;1911.0385453914414;2050.7061633831527;2414.139040413198;2784.1786162208473;2752.3629383584603;2504.596050530633;3156.582761500913;2804.8891954679984;2562.2065366197585;2944.0963450249237;3233.492354643271;3122.308979279903;3618.1717336608617;3967.3808893001496;4060.018984521126;3559.330093463861;3323.74155173672;3514.289934433339;3876.0175627091203;4079.6355133382685;4404.613709654273;4393.735094554495;4335.667705044484;4507.515663956586;4751.76858935452;4607.134323182009;4961.018958699024;5119.498959934455;5243.47627936035;5153.94095645106;4933.229317685491;4994.156715711972;5060.704625514718;5231.655296926136;5682.209919135892;5150.3513263334435;5034.380664287025;4849.705094949649;5200.980369744028;5309.147307060451;5539.172068989055;5535.980278404537;5363.577454653132;5436.41374357212;5428.645437074698;5703.113690316639;5666.5361506467;5558.454546803907;5189.087958016661;5032.649006577119;5170.439635998114;5615.089023752696;5568.106626961264;4964.69910933838;4812.690832894893;4936.426644264533;5063.780403046705;4971.994726881318;4710.925775613033;4576.099364574185;4209.734068094486;4543.452261929854;4302.040515008638;4908.93720656575;4624.968305590996;4259.9867402226555;3699.8540759928474;3652.1353314708485;3368.113765875335;3296.7863613905256;3568.675017700094;3623.0308366780164;3849.9851819119613;3587.7652416651435;3420.1028733658686;3481.240429089581;2993.743483420637;2669.318524276435;2298.7703714188
