4647.662295454882;5298.173848055422;5183.389530147324;5425.312343505156;5444.430362340642;5546.960173595177;5681.708669562568;5327.1074758570285;5632.07642051883;5640.375780495099;5709.606009329474;5687.518775699433;5686.540171980826;5776.711766254826;5333.2416892041265;5775.826352316218;5777.44509614643;5864.309907962622;5556.849450696972;5794.785011973429;5786.846263562682;5789.575921373078;5673.386913638807;5084.04990293683;5604.6282705030135;5368.743676318917;5679.480447503079;5625.567764116759;5347.856706156576;5506.814407264501;5321.0275682156;5176.443326497762;5151.127702749917;5030.006559130684;4466.413477740893;4869.727570421767;4899.082455765425;4678.232056752283;4525.077562393274;4736.29564100226;4372.442672727294;3387.4780167291133;4131.270282826681;4068.7912901590657;3929.5330001175926;3915.4428385202523;3208.1932495381125;3578.6636254583077;3380.4734102942193;3275.2257287360335;3048.168333016306;2844.0064608059947;2805.0859917864645;2553.9997395586793;2514.5281702273787;2381.812594766777;2123.9586584438243;2111.5522075502304;1929.246656924874;1806.2339830818778;1802.2966725225726;1661.9682423002455;1636.2412277410433;1613.9348251002416;1622.687453381097;1605.5520053287241;1607.2249835493094;1601.6883295636346;1590.905738601031;1592.0040873743014;1590.6712816830477;1579.6822828926604;1581.6498529952053;1563.2181218398282;1563.1241028351337;1573.4633029960987;1557.3714378075667;1556.6774639429036;1559.6467067670885;1577.5530449296373;1540.078762993485;1545.3866561290672;1538.5773430476343;1537.2879307554028;1532.1095733420138;1524.9225557660534;1528.56367323621;1533.2213785452252;1537.5660139649774;1522.520943570185;1534.9189140524052;1534.8212709341165;1526.4094592025388;1589.2302460704836;1614.6749253370633;1582.5248379401626;1694.0482243028966;1918.7684889672755;1892.9504916389265;1721.6822461463253;1891.5609287145282;1991.1348383780476;1900.56705677327;2106.7480381128826;2097.031299471292;2283.9981398834907;2103.826232334807;2373.764296423705;2378.697581319185;2230.7252242923573;2555.322025201616;2631.8655577089185;2226.413076483828;2702.206104582586;2656.564696396896;2766.630384535192;2721.7214450079246;2914.3824166290497;2838.862185274872;2985.211943176353;2937.5320707973337;3237.9408680047773;3116.654469726217;2645.5715187104265;3203.5546214165115;3342.6100282896036;3455.372336497937;3421.696595231771;3157.7068206772287;3553.5047129195855;3437.407848952566;3277.466317919428;3439.9881426013917;3521.6613620386006;3457.446420310504;3476.554900221913;3134.5469539126543;3402.305078355083;3354.540229067236;3435.1939273200946;3487.406980504931;3360.302622559843;3232.9843947335003;3108.379726045972;3261.2275971032245;3179.5876546612026;2696.490034535192;3093.8626408204286;3164.0316010650367;3017.2483950060328;2991.5402227655927;2827.3520053949687;2365.9557752334335;2705.5744488847386;2720.054856184777;2362.5332146741057;2414.3343033337596;2478.2093787567082;2398.647004153652;1877.6531515311083;2223.6536011074713
5322.6456318344835;5116.839411844302;5430.011892914709;5493.511617314831;5456.6946640114475;5586.988486365187;5652.300349607153;5653.15914372663;5412.678391277492;5689.782148817476;5739.662118670668;5805.86369069364;5861.762391459194;5802.503227414306;5428.4288463550265;5850.192612683445;5788.376405728213;5822.379442568944;5851.6493672074985;5893.682074028869;5931.301118843546;5806.6047019866;5269.167900860473;5688.36942870771;5555.942985237304;5733.8525520004505;5717.24690681307;5586.288921558598;5632.763204311837;5523.459804665274;5404.230737674343;5428.0062915092185;5344.55491574123;4670.97762608034;4990.446149913061;5114.628981736036;4901.973455787931;4728.263514746873;4982.843028456281;4461.679738798749;3602.9342459495347;4450.647900351546;4416.99837414295;4192.151615182918;4117.073038958943;3510.2995639647056;3813.2654291405092;3653.3179362281608;3530.102444407482;3325.047383369101;3131.856546557975;3104.1773697666367;2867.366150701059;2767.685802472985;2672.937259189945;2461.806411270496;2361.690632575328;2196.9289234281623;2115.0098906148005;1992.5278830628952;1813.4159716834802;1676.2840320255038;1699.7374044772296;1677.0671692077506;1642.2237079359518;1633.6367342642568;1601.4003586051413;1603.9885560710115;1597.983510298983;1594.6838499069436;1589.9495592891608;1574.748929410859;1566.7721439228096;1568.4273849767694;1568.407212767003;1570.8484426165662;1558.8045859068593;1567.322208530982;1552.558647902084;1552.5472632700805;1541.74483852665;1538.7219094290745;1536.0611858627706;1539.4067319014484;1531.3637697626318;1534.2638143536851;1524.0720666803893;1534.2663392933562;1536.5594279216034;1530.530630034382;1538.6333982136243;1527.0695588384117;1533.9983866130524;1531.8691363757139;1549.1108620101918;1544.422133904315;1732.9039660312894;1741.763970008201;1659.7905884067075;1830.1853627805874;1811.2698166841506;1789.8423975505602;1932.0415510296486;1941.048900246339;2056.499241612978;1970.0922771949486;2267.9822873456665;2209.5030885771066;2115.5575106714823;2496.1302408543816;2507.600423041918;2118.016954668484;2604.811212590042;2699.609931626725;2656.428375731904;2606.26439606405;2794.328259877509;2741.167683148963;2945.059202176706;2840.8665293013937;3147.6133282815886;3010.0559653289083;2554.3956224009785;3214.891910009631;3138.364819481036;3370.55909270072;3395.1487934207235;3051.1837296865433;3315.3710305639975;3514.425866897758;3131.7120080679747;3369.0995290039036;3440.285009549172;3373.0039705511244;3545.5184071561184;3418.9608454765694;3481.9048023409373;3028.5129633518754;3280.0395019741422;3378.698321038194;3434.4532295902018;3305.8876290983026;3220.045033261946;3350.00642842992;2979.48106972273;3132.8048095826375;3089.2504000927;2579.658761692016;3078.6592169537853;3004.1849102023025;2865.6086251660954;2792.8030290170823;2792.538297278142;2231.249160461801;2540.61922599662;2450.9714599106014;2172.7693090039043;2299.738120031193;2303.738754042049;2275.173328669488;1745.2712801193952
5052.013051663841;5347.062607388414;5357.655997929532;5378.349993931041;5521.231035922929;5548.942423074084;5660.348583542473;5711.0853298968495;5716.492607627368;5480.136105808331;5690.1464473825245;5791.852759500224;5851.609584324512;5663.241327742426;5745.969761498309;5522.015451367928;5823.9633990741095;5940.938516653465;5963.316187450475;6038.2586039084;5877.658807582285;5345.3398257500885;5807.209993999244;5710.336025739351;5802.657582955322;5848.661801346019;5804.901957229576;5783.142199746437;5716.960946312396;5592.873356865763;5636.24772251665;5354.505055191544;4857.927479374256;5322.513226238484;5321.260481078315;5132.677872156263;4957.460417053499;5189.888504443418;4894.006362286091;3820.873600155433;4768.742547221852;4635.022381893657;4475.911517178202;4331.8037600653615;3821.239692989132;4097.371303509784;3896.750614529915;3785.6239670980067;3627.2003392499373;3441.1714214538442;3377.333928992568;3196.421425836681;3046.387481704775;2994.3195816969064;2782.336829981992;2627.0965716219675;2550.232253427737;2439.5976242283145;2170.774041904946;2059.147706101154;1975.2270901319139;1877.096693686115;1836.3719555554458;1756.943290641714;1675.2992729419934;1636.9336601025398;1631.072020903799;1625.0472211097467;1603.2560894254418;1604.0466083164954;1593.4461255216238;1587.2645673337443;1597.0005516558817;1567.8918158283109;1599.98315474724;1564.4809968564416;1558.3059378375822;1558.2541084241864;1569.2852291409292;1555.372407438962;1557.8940890496683;1539.7185172968827;1538.1256118307517;1536.403365703386;1539.262669614354;1533.0486398478358;1525.4565548333942;1529.073284780818;1535.9146182918998;1520.2858156584384;1532.5359291211746;1523.4242337319386;1522.330367703666;1529.8038961105833;1545.625157903963;1664.8588417958642;1635.130084468575;1599.242103048761;1685.8133124368521;1789.3306034882937;1670.0176302145965;1832.226281190999;1813.4591900276496;1963.253449687965;1852.7482551159076;2160.029224729477;2105.0483742946385;1990.7845014977129;2385.0908690270717;2333.7974074907893;2017.000361739343;2437.384116495533;2540.4144252249516;2585.5051445863355;2498.5247427445815;2707.964062280603;2633.5229336949865;2852.9902320039696;2745.9966748814977;3048.6474015065946;3025.3311318633823;2474.8842940238883;3061.7079717064116;3042.058780930171;3266.8255112699258;3297.5491994722447;2951.8341144049887;3173.3724541490274;3308.8469093338067;3367.906626708578;3041.3443512372637;3344.1924905473056;3160.56211037438;3444.89061735223;3457.3782363883365;3520.509909752171;3330.861372023526;3465.1107774427137;2943.214466315091;3319.6524627779318;3383.628133048275;3292.921596707023;3114.0541335623316;3065.229302390122;2937.164840002718;2834.3938015870544;2954.294501464516;2912.6079050375924;2475.1963541308955;2861.4541450280594;2880.341511034536;2676.5122315544854;2567.8180460725525;2538.7850510234703;2107.685591543728;2435.205879889958;2337.8958385393826;2008.0687689449378;2182.6816732247835;2116.02411206881;2129.2598241574237
5271.2236990033025;5355.583193589608;5287.293169504832;5427.43554705107;5485.230539470398;5569.760329093496;5632.440747338916;5601.203076751633;5723.683553287981;5689.273298144235;5545.681363240953;5732.092072883199;5831.204207706949;5854.666447564524;5827.986383308169;5951.8953850097305;5665.130369503001;5850.765112690381;5968.059826969637;5986.634109656655;5534.381812169111;5851.026098985101;5604.55315405484;5839.740574231566;5972.130484000488;5934.891748116987;5902.954610780255;5854.2907028479885;5746.918624062054;5824.787307956157;5494.6402355245455;5051.560861384314;5409.1413813741865;5436.443036678288;5361.593108215878;5210.872302682559;5408.955828564927;5048.447608747694;4064.662275866054;4963.264192020513;4885.908420276289;4736.557866224403;4646.482368676178;4131.124083966804;4351.041328092657;4116.371443112233;4042.529430153244;3911.731461875637;3786.159146565067;3717.720089934388;3482.3295256435713;3321.265297706961;3299.1977590378006;3078.607668502903;2920.0514237797333;2932.275282374931;2822.3895725248235;2346.2354855742065;2478.0035690504524;2290.7463876841307;2131.6349143403927;2000.1679137806968;1924.1260492857768;1741.169330112794;1774.3114228417317;1685.0315278531323;1637.3831299451288;1646.0865115835913;1608.0978131009033;1607.4079942639796;1592.08854714446;1587.9196208564865;1582.8462626037212;1574.2124646861391;1569.8383158623124;1579.2530903254888;1577.780258633836;1571.2518910510307;1556.5842725385535;1551.220816804747;1561.751279402355;1544.295555476658;1535.4472636688959;1531.8224325408892;1524.8619914186197;1524.507326277233;1524.6433799096437;1539.4663334045094;1539.9443908839528;1531.8660379455262;1530.9972529971687;1530.7092270389844;1517.364623853591;1529.902016141531;1528.5344538265497;1528.9277151901183;1538.3505934406198;1618.2819249067256;1661.5770119951214;1592.9392217939953;1697.8362371547287;1688.495332887859;1817.0595938259742;1739.372562229729;2024.0634346824195;2029.038501851566;1870.4811603219212;2172.642671142335;2230.1145794897034;1937.2770504820385;2386.6429992855415;2428.3698806387733;2511.0096946604976;2411.409571142862;2569.63869120869;2550.626626140565;2729.27240393498;2641.682637289157;2977.200936126213;2815.5190275972604;2386.13922425615;2929.383192578856;2995.897779257022;3185.789032338504;3139.7522543090354;2859.657652932317;3183.303928301976;3378.835763944414;3347.1286585294047;3400.10128658489;3280.849654306037;2931.7742004769266;3296.92948642044;3235.4359432653555;3396.077722408758;3492.153730855096;3409.3813001576973;3421.2246710885915;2880.1882209242885;3211.7559367306894;3374.8418004950895;3340.804371111709;3318.567207254781;3028.4022931429463;3145.8646225219068;3166.711225529841;2751.908859163293;2942.044358641018;2836.859167473709;2371.789850828691;2745.7845890511585;2765.3848285833997;2516.1541666530848;2463.087085885257;2496.21322981405;1983.1986513717318;2216.141785895507;2278.176898832257;1838.890027248245;2007.7264289977252;1962.7515815635109
5291.318403085717;5200.692949582943;5349.4564027353845;5427.476653870953;5429.931589878854;5512.290376329318;5445.391527897238;5639.030452432186;5693.840477972398;5748.923862063174;5778.524370617257;5620.088981866707;5783.277442134581;5859.800993532508;5924.657730593052;5966.01294649473;5880.860784755277;5734.717895991182;6007.219294673014;5956.988183002513;5746.39794646809;5964.712708217365;5809.906600138588;5921.033983722116;5980.500013468455;6044.218476232093;6004.924790637607;5882.298259593232;5939.113534120603;5730.616799461134;5219.170706956311;5535.738388519975;5611.301464790593;5560.709643464094;5461.306881770518;5599.151637800324;5259.579893104734;4283.711648882219;5119.776093734154;5085.782781749826;4983.853084100506;4875.97840600546;4489.475668543149;4667.407139861085;4359.093723499381;4307.738072192976;4164.936774174286;4097.693902452345;3985.7064657143133;3793.1138317899417;3617.329542067059;3574.1263947168013;3482.004781889944;3203.2690580477474;3334.870322036022;3146.175225963164;2550.4994162838284;2773.2944629444173;2672.289260278081;2404.3703508968683;2268.6987012058803;2173.6964883704018;1976.7380504396565;1902.3340470422954;1808.7103340250646;1686.859674854024;1699.1583657027345;1639.9587156384277;1610.0981134946242;1619.4639143202578;1606.8409699682393;1599.7600692171038;1589.9944366247096;1585.781565912699;1577.5122828674657;1565.1678501721542;1566.764326415947;1543.3641265554782;1554.4767754126383;1547.4666321121802;1542.507587139623;1560.2560040660835;1524.128860801267;1549.1988275025224;1525.0547331206756;1538.1234851196643;1523.7281550654682;1524.19375438184;1521.5593161257655;1532.9644482134656;1518.7175378207776;1519.6914829602372;1526.5202717426214;1515.6824833274447;1531.0175111856522;1534.9200101538502;1528.7357486497044;1574.3493615961934;1540.7739778661864;1572.575396588574;1606.8926471686202;1670.633232964305;1651.9718462017934;1904.7050443506707;1841.2675479607517;1768.9188181002462;2165.774203747276;2124.3062888115346;1865.4801620228384;2226.9313666303838;2297.978755619458;2391.840120017632;2300.9041329415745;2436.639265652234;2452.678092661623;2583.5139931926847;2520.5321990046136;2893.012429892417;2748.1407607597134;2303.063627678523;2884.4639093523865;2942.6658114849793;3091.823324247544;3112.4855384603334;2776.332498134988;3186.622311992997;3248.1539120985603;3292.4314025546414;3246.623910428764;3398.19452231174;3323.43823925864;3211.165614009646;2847.9484602345165;3234.0084364834725;3277.471288472742;3354.959900021442;3248.922126826961;3030.861379058296;2764.814051169532;3196.8765015239746;3277.915288789725;3296.8772995377544;3261.9046442480935;3172.8005140579935;2942.3842716709073;3068.09325537222;2961.229838346677;2639.1871281297804;2758.0743488302946;2683.351048783965;2269.201509418004;2562.800806989976;2513.208882415997;2348.409872313758;2344.0527794358873;2317.9561398053534;1858.2341744697217;2127.1272994236006;2100.6418455581825;1688.6078545274568;1791.571137871653
5041.394783273242;5188.061021494544;5328.158138119352;5321.5688440599015;5426.299337377399;5355.305391505062;5600.5796833884315;5654.634184626526;5709.901900388739;5820.443106096337;5820.944078466493;5791.628748101226;5682.085589890508;5810.369465485417;5880.680931009648;5983.351791052216;5907.011038393822;5906.984631110964;5969.476585173324;5884.142368622597;6061.113620911892;5931.221835860461;5986.08208750111;6002.495905161349;6079.542548617661;6119.237837851013;5991.82518664983;6040.733259227978;5895.786435905203;5374.140241626548;5765.774577181145;5845.342978689038;5748.523647451403;5650.788260328915;5746.158188459373;5599.666307954976;4498.253273948273;5240.091775406926;5296.367222952191;5177.38421271488;5176.355863199947;4763.142729572126;4927.023211680815;4701.516809342392;4553.781197239951;4430.423954682216;4366.620558002012;4227.578698936337;4099.349972202113;3874.566530860084;3941.0159477964617;3778.4287798242094;3526.6129931022697;3643.7442300111234;3420.514640184813;2750.1344029224774;3095.625650568582;2888.159686706339;2660.5867325121685;2547.7531706880945;2453.5100493383725;2351.486237287962;2147.671660215595;2016.2223737343554;1872.424868109283;1863.759620700371;1713.9755612073682;1650.026656638546;1666.504144865919;1639.4155510490232;1622.6540679608618;1622.9339019066824;1596.604421431373;1592.8481714048487;1587.5509784505396;1580.2941819630619;1560.6809823443366;1573.822340111268;1548.6787188182823;1550.3271621897943;1545.7065051546788;1528.7795873264356;1536.5849864385225;1521.9112875549083;1523.7416355739606;1528.8133942075738;1519.6970225725322;1518.574983429243;1515.9604609890466;1526.1200739656858;1522.3766148416848;1517.7553792951794;1518.2117490943463;1520.1567420197307;1517.3560597310143;1528.6068092652974;1523.8580136905057;1523.650689455123;1516.1511010299348;1533.890462983577;1579.6132599175023;1580.4068570380148;1753.2764646894118;1760.5297913138065;1678.0510726879816;1907.7578152515648;2026.1783161613366;1789.4518726106965;2082.16931282181;2188.916882952172;2241.896691066224;2172.0955741589732;2325.9780995137285;2355.28921314164;2444.24940427732;2401.638437352709;2805.2779176146864;2642.4738231433826;2238.020798759134;2854.2779783666792;2805.538801764716;2997.37319384631;3016.872714464812;2684.0182694546434;3051.973827264088;3144.270292068733;3245.5246737908406;3134.6633797368627;3331.363579295514;3405.9045446710907;3288.046448123075;2847.5983370061217;3250.0848908866847;3121.5836238119728;3247.5925429679564;3304.5348570861165;3344.208009953748;3181.4159249948375;3241.3273779378537;2710.1919080050907;3143.0050346264584;3051.3637107087843;3279.5784072016845;3163.0254724110496;3126.724011284781;2791.6309275624276;2937.2373109377713;2813.056813987899;2492.1008469156645;2672.8875177631066;2573.8252750820407;2157.726863581114;2465.4284777017224;2444.2568697258507;2188.2238416099026;2277.820027361786;2182.7336896569873;1731.148440677045;2011.0997408816243;1917.188768651419;1519.6372504488447
5139.461134060188;5236.370083985872;5217.63245890447;5320.872381917417;5236.876282605149;5484.949652330353;5426.660230206535;5564.942775964278;5750.922901582834;5740.189417426903;5658.492597826302;5786.268889083454;5834.120361513897;5752.073936746928;5837.310537999448;5941.608129709639;6006.889265166974;6003.106488403761;6060.303945832132;6076.346318567635;6006.9986618417915;6124.634788854722;6063.132164881072;6124.42577753515;6108.949921754582;6085.375689274055;6118.81937918376;5983.17280197423;5515.866311658079;5832.580653598165;5987.252087576888;5938.9743031901635;5835.4382475758575;5890.2016999556;5649.59187894153;4714.1937742224645;5631.165861061733;5482.599562689711;5399.461493158842;5329.378375376211;4993.487598130878;5103.14345453612;4927.421380750114;4792.44867918774;4694.782992908498;4598.869798881962;4542.384758915876;4350.647840531011;4160.536989327669;4166.87547586009;4022.35135233655;3793.04487185811;3945.588374697233;3545.2689485836218;2932.726375152594;3440.1237673094115;3234.2304546825794;2938.204397594836;2849.63560785653;2703.8366150794627;2665.913120612079;2408.3772210757033;2257.6486910657413;2153.4010917859787;2078.645165533977;1860.8437606233538;1787.3518068984772;1803.828268605372;1703.655549203178;1625.6067232275163;1632.2785394423663;1639.5401854695317;1602.3533463800718;1591.0609511260286;1587.6294993066394;1578.2069606719992;1566.544988097345;1582.0983999868345;1565.7883314714186;1556.3077450889875;1556.1075856026737;1544.3424911924456;1568.3925587978488;1557.4347827686188;1531.6696817764446;1529.9018816736425;1522.115206881719;1519.9635331871514;1514.107682246853;1518.114838940624;1534.0050595424652;1517.023158827415;1523.6148721302784;1513.234517240494;1520.5651485562498;1510.97815754423;1526.6026981549473;1518.6803700280636;1513.6326926144206;1527.03667655943;1525.6603713850202;1604.5718970600185;1579.8461955757746;1608.8283728869678;1765.1792556246182;1843.2816647793156;1706.8155475947588;1888.5516921736355;2122.5173200855406;2134.8121964550683;2044.2523536670244;2252.7751002662553;2247.4304009124735;2285.420393808969;2285.3018020436793;2669.367877393071;2554.832628372891;2151.1099454880864;2768.349543167593;2731.8904186243803;2926.040491067497;2891.3822575958216;2573.6796305468406;2926.213022330279;3100.1713436241535;3133.485461237308;3042.125157382116;3199.7956389927826;3306.7603226561732;3325.7899200063644;3164.8692134984285;3181.2529575924846;2840.5056793822127;3077.2319912223106;3160.132451189538;3264.6549091708744;3313.464336307012;3294.6691006349292;3083.9102853786158;3040.0391364622524;2599.8676214358834;3148.713599669484;3069.051027706377;3043.785915641689;2986.0065687567812;2934.3474657741403;2605.738529248621;2849.399459346993;2755.846137053557;2341.7928352409144;2554.6939536789755;2481.4420772080125;2059.0619191937258;2313.3914466950914;2318.159542547083;2029.0022905128205;2026.7885081472346;2101.73700683906;1615.684279403045;1743.6792353052263;1749.8975035496965
5077.434399473305;5090.234636368025;5230.557951994111;5115.409359068087;5287.939931084833;5317.49332334313;5391.457399234835;5597.448962349242;5653.650507679439;5480.1594421360805;5732.023841287817;5800.118707225151;5813.658350355452;5868.725996678241;5899.025915641295;5815.613370148765;5913.242677656854;6019.057817666664;6095.847685729685;6141.52617129484;6159.7970312795105;6140.148050666811;6187.730679804272;6176.708705096345;6191.05213510358;6188.918869084551;6073.472445082693;5671.221570780577;5908.048677731735;6064.728570807763;6078.044877675246;5966.869846291386;6060.120201031836;5811.265446319085;4899.680523666166;5747.587492355222;5624.337014701457;5591.781589934791;5576.7057702641905;5213.674367189674;5367.201450125698;5140.090662672544;5067.069232803993;4929.075382625367;4882.228303676324;4798.8167850117115;4611.846921475937;4420.1861414551995;4493.971940067031;4274.958378834131;4088.3345410931397;4215.7605729655315;4016.0739209862245;3155.7196949278123;3677.8029552672206;3562.5984655628185;3169.669979051922;3113.1472104468035;3039.1859137289516;3049.9086355058544;2663.123410650317;2546.484889730953;2450.8756687910663;2310.183818744347;2094.2603316900204;1977.8879423126252;1986.8060633506996;1839.4396610992053;1685.4553986694755;1673.8489486892458;1687.3080670617956;1630.8795996164797;1605.1696144699085;1584.3767765533137;1584.4606274394314;1584.3894827478243;1576.2950662754188;1565.9983931147165;1558.4572620250776;1567.7936044901664;1547.9469435302867;1537.5700900093948;1537.2359656794367;1550.1644954118872;1528.7107414087598;1514.5812451565178;1518.1975328283786;1514.9228255362475;1512.8213657820231;1509.1580475645394;1507.2556179556477;1515.9603628574066;1529.9282528880044;1514.9365357770062;1515.7531964974596;1511.4336946825422;1509.8209062074973;1515.0589576810262;1520.2376269594488;1526.5305312369082;1525.5678831217983;1508.9383608304431;1552.042682440926;1639.4786667993608;1712.0287668747683;1624.0605431487086;1801.6408775319417;2015.1089295897464;1958.263571442884;1918.6164085412356;2137.820983038282;2104.9675214124327;2150.2663003309985;2171.440556353204;2507.328278974271;2439.299375474805;2077.5727315270656;2618.2967455128087;2699.8717371993985;2830.956380837976;2757.3181223880138;2464.84688851149;2959.425970105158;2954.8539872858855;2964.3955838572256;2939.574183326112;3149.6461991312494;3188.383224928374;3264.9395195581965;3215.0866991373173;3187.454549853898;3222.1746814578846;3178.9850473545303;2837.55763438402;3063.226986306841;3162.46324575702;3215.7476769539403;3279.6232625873376;3238.812935004677;3049.746837088199;3050.229944571946;2519.111546498773;2993.7429937713537;2914.0096676594085;2992.997364935496;2851.759222800046;2914.3057998350546;2422.251248734638;2604.1643247765605;2500.0893944290733;2137.551268329752;2433.6778273480627;2361.82188316593;1952.7498586745899;2291.465749186958;2150.7299794298297;1892.3664512578841;2024.797049163703;1898.2015105093562;1495.5584148246617;1679.4712994988065
4970.530833317272;5067.1336564362655;4977.412342495983;5184.342266158737;5160.490726742291;5290.526237460246;5447.473564175967;5529.4875381419515;5342.130356374476;5739.351115061981;5690.109371741418;5677.394035342137;5821.1070341032655;5759.0031184179115;5703.7889981499875;5912.329834686028;5935.794337399357;6016.16803281368;6100.429173221794;6139.885565294982;6224.077361709323;6168.800139742459;6099.000390995592;6115.043074960882;6237.671196088863;6124.36264821002;5802.173909323239;6148.717307053507;6023.8243599312445;6138.351287923371;6090.596610677319;6173.181905701019;6012.151472212027;5045.187251672682;5818.209016229612;5661.836151332812;5840.0163177420545;5724.320084801145;5422.812794285929;5638.759607046461;5423.4755804753595;5284.738721394148;5158.422504098049;5137.333697978648;5012.4809497146525;4866.263955568536;4661.429667735428;4745.286066990081;4640.466568848798;4348.417414291567;4427.781197451627;4247.533321767528;3389.551349842098;3906.2969572572956;3829.4585345096157;3474.1540518208235;3345.0546524655947;3293.680514020416;3306.9310291366182;2923.4937958567375;2832.0837796646515;2712.4095275249147;2534.935680102067;2422.9931117385654;2196.79312018008;2179.900104917847;2049.5575973643226;1925.0194028906787;1818.0628601548608;1794.9952710034381;1673.516718700934;1614.0889320462895;1592.2674394514904;1601.5714979204377;1580.5747939840019;1579.4257759802795;1570.7886438482492;1568.326589429009;1566.633554532443;1542.562520714401;1539.6303069222188;1551.3165912506113;1549.3421742814414;1533.5976873363886;1524.3522846489338;1532.3390371448127;1513.2747922417152;1516.500075589355;1538.1356641007235;1508.2137489078957;1512.8495238260762;1504.0562458617303;1509.1806319166174;1505.173565263105;1511.154867744528;1514.7456326118315;1505.7683525254063;1517.2998045701204;1511.9782672017068;1521.429662063899;1511.8043159519007;1511.0781702079066;1549.5382534962446;1556.8667295584594;1562.2060555651128;1638.446342412284;1831.7740475899795;1829.0807655157673;1804.7967351148782;1972.9982923114821;1995.574281183432;2035.405248662822;2035.8163806818686;2376.0619707682686;2266.215301598043;2003.5759727565264;2552.8856111064724;2643.9040328939045;2710.191464627342;2699.8059813457;2362.1660692627397;2780.388626158221;2840.2310757170776;2907.536486188147;2860.6612374933106;3031.2003470913755;3044.393779350022;3203.8993094569933;3112.1595859142008;2919.0163548084056;3232.143993604033;3290.6660344819516;3273.7044692600716;3044.7177412167794;2709.6562228141524;2995.437705601811;3130.643901505778;3237.408596374658;3210.2722887492528;3199.6119666336554;2963.7709070393093;2921.4985028125466;2432.5218731083182;2800.217369692489;2907.066780072117;2821.0267760013576;2746.655305558744;2653.131511340126;2273.3506817227835;2617.508629611716;2504.78942682302;1965.8297861790625;2258.7444347049664;2194.7665071131755;1845.3461281390519;2073.005602055635;2020.591854793573;1752.0650376001931;1869.070788513475;1693.7550587928363;1369.862514567317
4915.818301444544;4847.109678212241;5067.945711698344;5018.086243070827;5148.23454904265;5278.723799120143;5293.391426986186;5152.419278425025;5645.851265806642;5591.408619165638;5579.639340409188;5727.020887776203;5724.553497119661;5560.617728378377;5823.637663059254;5668.091662202489;5961.356833978588;5997.501514523266;6060.782650026618;6192.042575398003;6119.957193641901;5762.9226659564565;5945.868912533116;6141.562831304806;6189.958345588957;5913.7201341691125;6218.470828237974;6098.731116106189;6226.256260886794;6211.124445579302;6251.7181316263195;6008.17538723893;5263.879507044335;5941.504029094725;5672.3596872818225;5934.311303453503;5943.529692552612;5613.435264633708;5831.4724869994825;5656.70776708552;5506.474029886631;5383.4407210682275;5408.118037681369;5209.809749508887;5118.069346508833;4899.967535807596;4999.297659357407;4890.727690385928;4576.188866707757;4666.818681816787;4532.898113797501;3600.770802745413;4254.35757236054;4073.3030209130548;3797.90833403543;3644.6588924529506;3583.4984655407216;3557.0005689668096;3234.1549998645087;3130.144312837563;3095.1829069503665;2783.173584940313;2685.394512583533;2507.752434660557;2403.6872618841644;2294.312641895947;2288.24670323873;2031.6959949490576;1924.673443008641;1768.4869769322377;1622.9219162355805;1628.056917239001;1641.713624974272;1599.007282199153;1587.6541684471697;1569.5212221206104;1578.0777985733491;1574.4823403890057;1568.8900385334764;1594.7526945036097;1552.74788140616;1540.199714598197;1538.7233603681339;1535.388704735244;1524.0013548398665;1523.9153106973504;1524.3853798152309;1509.5444181208954;1512.0657556043654;1512.963032406807;1509.5329707389214;1502.7842975366827;1499.305293309941;1502.1890393848178;1501.3636546331527;1498.6887407086433;1516.8421658693132;1499.1933081683671;1511.2884476851812;1510.1643820356146;1514.8881772178822;1509.479106401994;1515.5465286321612;1525.9892904694511;1523.3083122735538;1754.60351723054;1654.9665671149196;1690.7040976369985;1831.3495630211748;1845.5611705675;1904.1900801940862;1895.9159934293245;2297.076423863898;2248.9367796673473;1934.9981632716801;2334.765476974105;2390.1875201300604;2547.144433542305;2688.1180881106084;2249.4136348559277;2670.4889566757947;2760.854923758149;2875.5815577878902;2786.147109294236;2951.2105844947837;2898.365960460168;3104.047330795807;3014.980856908683;2768.027037222512;3189.6884065493623;3220.3340557997735;3247.5434516422265;3092.2162280534967;2732.12564768611;3123.155320008959;2915.4564725970718;3202.086799701371;3268.27859280548;3203.0342969809326;3089.1384491909603;2895.129764940499;2647.482541202201;2963.127256887007;2352.3515022927836;2715.070556343529;2700.4656891247355;2690.7068336381317;2604.308997922859;2619.74541773678;2099.0826009165244;1982.8503094128596;1860.4846295393984;2042.6777098690777;2147.008286659101;2039.94008426665;1737.8274676383571;1986.8320405423563;1876.9550340822661;1604.3321751718804;1611.6206206513114;1442.2193553905097
4674.671037634393;4922.269462459516;4857.685987732312;5006.757593892576;5095.882689784672;5193.058752770588;4967.703099447005;5325.636274088026;5423.2833196368665;5430.697728433803;5610.644717397608;5616.349662796422;5412.198829481149;5684.943546460202;5598.461458243812;5857.350502267625;5819.739961780077;5971.309275040704;6141.927879608638;5937.669484348547;5642.760998374006;6115.681054022764;6015.707271676912;6130.264790403242;6205.535392447821;6134.519169756582;6215.2992076330975;6296.574165393349;6257.15192547135;6337.380425858529;6067.075374514148;5389.044187472342;6149.884084288327;6125.269080145273;6025.562970836397;6101.93914615533;5796.5838295676485;6024.534183017227;5879.897656054176;5704.90518486293;5587.901948080168;5661.876119464156;5502.257234775485;5329.927689614408;5163.928365508655;5114.357660558977;5075.799587367106;4795.4787392776025;4943.964236990914;4817.338836330741;3831.855089636166;4503.399202545243;4401.679797251079;4112.190333176752;3938.696117488342;3884.7137520471897;3829.3221872557606;3513.888478440016;3425.0144489054896;3407.25780968659;3046.574598942216;2922.424446872461;2814.297031605226;2678.876272782952;2526.696613735776;2654.9151104179464;2414.2970490466173;2065.7883150445673;2110.6384220350346;1790.5556969949043;1736.8300521202632;1723.7827321540753;1645.7366180742843;1581.9382982743477;1578.449591672359;1582.1212780671492;1573.5732685032156;1568.7728575919261;1565.785382391419;1551.836594437089;1546.6700604385162;1550.1950194634244;1537.020981522396;1543.048173690385;1528.6736082802802;1531.7416957639437;1523.3500511916004;1518.579970174484;1510.4705497687137;1505.6830701447595;1497.8519180107428;1499.1061572628369;1499.8560791838784;1508.1317406613273;1511.1050406769768;1496.5848446449695;1496.947436191383;1501.0225639001135;1509.5103713365334;1502.807187749854;1509.8714830993963;1511.3094878742363;1517.398690374106;1513.8329645405095;1514.4133958538987;1553.2205362835023;1608.329273494561;1639.7817134799789;1706.5725718463734;1883.0976913892737;1780.9229864218182;2171.974905034773;2038.0072335168481;1872.9533677578697;2244.134977443943;2349.729380664882;2423.456117595753;2517.8071940449368;2161.6580913698476;2639.2118421756963;2711.8844686485145;2807.294020563881;2710.667528208602;2838.363769156436;2809.7505906210163;2991.8285718562465;3050.236535641091;2586.603676608343;3068.4078501044114;3197.468801151371;3210.9948825750826;3014.030683067144;2710.0973685009412;3010.693717683898;3111.852288010587;3136.374966140586;3118.3918779003725;3164.9925660981485;3066.0616817853356;3034.353307932406;2885.6234257931997;2943.836457481087;2873.037686664518;2801.9006860764493;2244.7265529955353;2684.569569351314;2614.413057655457;2575.2754898493313;2404.7334027792763;2396.3875007090164;2377.2587346229006;2277.493989948906;1805.1061514529906;1958.1341446344734;2013.666794792382;1908.2298691159347;1631.3480830263034;1775.9649096831106;1767.6536485387237;1453.4690787480445;1479.0136113846556
4781.571340924065;4709.867044536673;4785.940575886727;4951.366700080465;4981.709866587411;4821.187772269428;5248.574533720959;5297.478149412975;5286.946534498806;5471.499184713972;5509.033471665991;5268.705021533535;5598.865657874772;5392.571392581355;5766.2713540616505;5883.942608596281;5975.40239205262;6088.222892848196;6032.6102072072945;5522.27673717284;6051.729506533963;5953.843995876496;6214.348825795633;6165.27493225875;6272.362561717012;6295.498279501469;6272.570125199145;6325.822490133677;6399.303827122949;6023.797148386638;5393.3632847752315;6204.117809083585;6188.9883236008845;6216.133455069998;6196.006126609274;6007.652127954317;6124.645855168213;6028.051470720486;5894.586759590916;5787.76749293846;5889.203124976072;5669.546859394683;5618.360454129821;5347.832041148217;5373.902043511195;5360.328221882429;5021.720158839276;5179.228223044016;5071.446290210327;4041.4485633539302;4763.603826173879;4557.371543535421;4373.73657795567;4227.631651733924;4105.202333428115;4050.921918865737;3771.857298090491;3731.6878034070446;3706.5489028013003;3327.2229875551857;3259.29157454644;3127.0794184715505;2935.327599810378;2813.6649617130283;2947.9703776845336;2638.740878653995;2210.1094800186233;2311.832262000201;2155.474002292887;1979.6447404995397;1936.2531984802915;1776.4878604415926;1681.093503750918;1634.5810535040127;1645.5843697447935;1591.3976458830543;1589.9683513481357;1566.6704588644805;1563.5538980844474;1564.4823039976577;1570.2698838725767;1558.891987603985;1537.404826051282;1539.016301071937;1526.643965057382;1533.152952605;1508.2430492840315;1547.9728073922972;1501.9034504384385;1503.0766624097987;1498.7416657146548;1504.6559136256333;1491.8885041505225;1498.359405674304;1498.4027823453907;1495.3210836073392;1489.5794431754598;1509.7786874779963;1506.6054954831686;1503.7434595637867;1513.9030852062294;1512.0959127715403;1520.3130436997744;1510.1963591584863;1514.316227634041;1540.2232803612676;1538.6090921826471;1601.437314995134;1697.9401811893229;1692.8871146345646;2012.0003390429295;1911.8347998065904;1800.5290434203582;2075.2725744607733;2207.576803867338;2329.1964957358173;2355.2987984824103;2071.90560505105;2433.0145294876247;2647.258729563232;2687.9610522360813;2605.4025555428543;2732.0837907325767;2669.993771531663;2858.4558262195005;2797.542093490578;2463.4816827890004;2988.388315812294;3013.6290539188917;3157.7066493820257;2798.0116145099582;2632.7533539135734;3011.7070841477275;3026.200859116436;3040.4747615542337;3121.944557324304;3214.7996275380274;3174.210388020441;3076.7838599214615;2976.0622696565033;2980.3439426379496;2943.2871871993557;2825.4003484802433;2641.4268941665464;2701.3772992818144;2140.81537932677;2469.938287727309;2474.36470109614;2535.226903046179;2496.8456192437516;2456.3669803525836;2237.418696353348;2228.2051251817943;1703.4902845329916;1898.8292368232246;1830.8453679319928;1745.4075797414912;1527.9892726935545;1675.9617567759713;1439.2201387987325;1329.7311289415682
4573.53532316947;4619.8368411685715;4769.250985696354;4852.942193637062;4646.138921704891;5011.66653732856;5104.205880699035;5135.366131930342;5273.311502968578;5325.37208870167;5069.383701531845;5347.878612955941;5248.605786161618;5713.315500309409;5696.5824451752715;5791.4189835167745;6012.994681940358;5976.4528003441255;5408.694816376133;5910.594891352928;5868.19707439696;6209.134500558448;6155.051946705672;6279.920612228995;6263.388923693015;6373.690335693183;6371.21166365096;6420.618445574153;6227.856998727166;5769.484272491801;6243.297197549369;5523.533061024027;6282.298802814593;6314.086728622296;6194.312242740513;6247.865955744964;6256.06607776922;6098.106361377665;5951.814240931664;6124.548771252061;5926.4881917798575;5800.879583979287;5554.689339202087;5567.614364832424;5396.273374645974;5172.854674653187;5407.566207300802;5403.1386554190285;4292.989686796708;5086.230034122294;4811.1329787670065;4611.3577837809535;4485.858730094844;4367.886600823179;4327.860729154525;4072.6114899204645;3982.739981211578;3847.0599129053994;3540.5091349913946;3523.2384363425363;3386.4417346787727;3239.456860842082;3121.7613182065334;3253.129289332809;2785.191548713794;2376.047339440117;2671.727947087151;2409.391590106818;2268.9587871455105;2131.3852505028917;1971.6054719460242;1946.5875237124392;1817.9442048710462;1721.6926292865228;1634.7162332591292;1580.22248223234;1584.855161176296;1567.7173796835332;1563.1139799016155;1559.8720630546536;1545.039048544584;1541.8404453907033;1542.5944050740814;1536.942423236553;1545.5514278356468;1525.8037944925477;1508.3374905133794;1521.5818733625713;1508.5046947572143;1504.3231714943777;1501.5685954892508;1488.9692920305051;1491.786588640771;1503.33673385885;1501.010649103897;1490.5208642762916;1494.060826457618;1504.5255236195085;1504.8479396097168;1502.6845691428657;1508.107310801968;1509.0625352282116;1514.9546967106546;1524.7114263083424;1515.1014655556241;1515.110964806363;1524.2145160877726;1554.9900143975558;1612.1984418564232;1872.9918617030567;1857.203132744268;1736.7861747650638;1987.9715241027154;2092.86980821938;2201.171629310372;2174.8985364170844;1974.4437921973647;2358.679906883711;2555.2324318073847;2475.6691554664712;2431.027547084527;2719.645359671639;2542.3962148728515;2728.527860792894;2741.1635529651667;2359.3620684077014;2857.403780544017;2763.0622173529423;2854.235541434094;2912.613531876804;2538.262800189564;2904.908742903541;3004.5631612441703;2939.763336284836;3056.47565563058;3170.9743200276343;3175.3441989927205;2939.648613391579;3052.492818716274;3002.3093884180726;2822.7114021271186;2901.241087739567;2754.205119977895;2740.5359301142053;2459.1133624387267;2640.7410687067595;2037.4071628064396;2451.861744182043;2419.5633584994644;2335.5584284622696;2249.6448825957923;2221.9125951879205;2088.806866417811;2084.5928982048913;1598.2693536691506;1709.581415943925;1650.3285409710043;1715.3885099170604;1430.517985569579;1559.5460750039547;1441.3993963857217
4434.084749700843;4615.444876134235;4723.482439256965;4494.597868554676;4999.787380157618;4917.143878131264;4941.144390176184;5106.184605174375;5056.173898904331;4919.675420451515;5257.471098741764;5082.611371395835;5526.547341348546;5586.43017485536;5637.779537853246;5907.21610511111;5848.030127196911;5251.969114865028;5912.509406466484;6016.506326961859;6131.302507752376;6110.8373333853715;6277.314412149142;6344.514383513324;6314.050168584109;6372.855599951855;6441.051780388321;6326.608422825855;6056.314844592004;6433.847698430861;6039.317883192026;5663.347423216742;6234.865698500287;6242.447634023796;6369.206822976932;6344.174713558601;6256.471284588344;6079.9451620043765;6228.223811181426;6140.363761724622;6055.427567274032;5757.215517262026;5852.977470923938;5621.104042964938;5415.464539060173;5627.677306940939;5470.420494031822;4500.699604685685;5158.095602432906;5088.362221624594;4891.714866783119;4722.930046509258;4645.847542888026;4589.514309998599;4332.167452023382;4251.798178041847;4123.779191172028;3870.27530091808;3838.5908409819044;3688.079799017803;3492.398073326709;3409.048012888959;3562.715444870639;3185.5285149007723;2562.6507136619534;2958.5168578919292;2674.23951506588;2540.0343278295554;2380.7499299118654;2196.626594344786;2188.719850211477;2082.854677657873;1875.7106637143002;1714.4576623483297;1627.9345428457477;1612.7780629809863;1580.1576028555603;1569.6966129916595;1559.765997208053;1553.5055429640677;1555.8936332684132;1565.7713447786145;1541.1173319020556;1530.8039350887534;1526.51736880405;1508.162749328048;1512.0286770098287;1494.1800243259086;1502.745434622184;1507.6126917413815;1487.4691600812794;1488.9558849728355;1486.5674689691973;1494.806377344046;1486.1286487789332;1490.697007039883;1490.1153876776816;1493.9360299640773;1495.0553434889327;1506.859452521589;1509.2146932432483;1497.2512046419915;1505.8028876971762;1508.350515196288;1505.611046250025;1514.1822318394077;1512.1979661479152;1546.2333297545224;1622.3905623762141;1712.5231690673647;1676.3294613333173;1859.122032307293;1942.4084790834204;2037.0505732205543;2072.34306944125;1892.2266790970364;2246.20432779126;2339.736926639299;2350.689671032799;2259.6534661442824;2543.879399900683;2446.3126860152224;2668.2693084324924;2703.807206699851;2883.6061531321816;2830.5567675793636;2358.3824977638146;2361.425801959236;2792.4754834420673;2454.256590196581;2867.5371094762795;2895.8432873903116;2834.430582932009;3052.0548518951937;3126.4252109961817;3068.454012570083;2946.3332545945764;2773.128839316694;2982.3258506677093;2970.2592104230584;2938.616671507321;2583.0908674544057;2794.075181684323;2671.7745901947;2686.078252024465;2559.1495354976114;2406.3876246065024;1937.8971093717055;2382.21575233357;2271.4905537630675;2172.8841963107425;2124.3127932371713;2038.7536803155167;1962.4554722705618;1974.0764953465325;1503.4235715360908;1681.1477035324076;1593.7173451348986;1610.5671061640091;1331.928702615973;1393.7108860633928
4412.501420074271;4526.767643268938;4294.590949178309;4665.589577968975;4731.986394818107;4778.975108383985;4893.293026799979;4995.272656947185;4701.527275317639;5047.876248770879;4911.720621330161;5351.560045867709;5510.979629332604;5488.83915671217;5727.310142888285;5666.903138180022;5061.191987432207;5857.776176411851;5937.754660416379;6024.896658028377;6099.613937031539;6159.876468124793;6275.893596947821;6215.492515185021;6399.724605183285;6424.179087266839;6467.174515959476;6422.835959167718;6438.9627336179165;6297.3427315802965;6146.118407941398;6304.026576068203;5827.638731090179;6250.058858733844;6380.025927694422;6385.27163553445;6279.148746940165;6400.873997237623;6240.773644670011;6135.452657507322;5950.758694939704;6107.417406348863;5810.263963836999;5696.437114771784;5844.503325731273;5627.065705309221;4750.0938446359505;5421.886866131027;5188.714380151519;5108.99993768694;4998.158290358682;4885.206309183318;4805.276310432303;4605.795671916078;4514.480995709523;4425.271753908527;4180.485543440849;4142.02997735759;3964.3503395904795;3798.727395531536;3699.8445544360047;3863.995597269434;3544.197151888316;2747.6144342128973;3240.6130120121697;3064.501978531769;2752.50409333619;2628.845359142805;2469.4112891173168;2464.4144754794106;2369.2526604600375;2031.262710714896;1968.5288457375789;1811.2760832441063;1764.6918646895851;1597.9414211827052;1615.718340407316;1562.7440829690656;1566.3846617885383;1560.2245483267031;1554.2804758969423;1545.408096646365;1540.7476310180725;1533.647592779819;1524.7647558587062;1509.854671984451;1504.1809902867956;1491.4769565819684;1497.4010249039923;1484.113193163107;1487.0178121169774;1494.4758464890733;1483.546512131028;1498.7078888162055;1499.982143648892;1483.564134040818;1486.5278446576287;1483.772050126875;1498.2433057615356;1493.1129296705394;1493.534644465826;1517.8405923180605;1505.6827567891237;1517.0379165354398;1512.5252252387584;1506.6180211066337;1515.7336185573809;1541.2067952993848;1546.1166028228859;1613.1259587786435;1790.2267514871262;1852.7125110022948;1870.624603822666;1947.942016403346;1814.725194752223;2129.0358011813328;2233.987947017579;2179.471583272039;2132.1949227331597;2443.6228379234076;2337.9849703506197;2616.3261226745713;2595.9605732301206;2817.811238323583;2705.218114127315;2340.047206487247;2849.463984352706;2780.4324179030846;2362.6756425431013;2882.2246095249748;2944.121909083713;2687.966964213309;2979.1055319124207;3003.8112424682454;3084.7984173850546;2892.0090927785377;3022.965775454844;2611.3993247283115;2985.50332560813;2968.498090864791;2576.7042860486918;2410.175347104731;2719.817577091279;2731.6404490283617;2600.740441938735;2563.1291857577903;2485.3632646687024;2301.5821567394773;1843.7904942205475;2197.937434048549;2263.781022608478;2040.287229676741;1930.463034437071;1754.7223850061027;1586.512678368156;1803.7400133501112;1439.0791045508581;1518.701745485797;1477.5670975948187;1389.9990768944524;1232.219949289417
4342.015435839706;4107.286039498752;4606.311024923225;4621.511018040832;4612.64659273264;4698.762345654799;4868.111470707821;4553.996405169562;4924.402697407664;4740.181051764041;5179.762126286895;5216.145915048881;5341.512248258844;5562.49384899522;5503.602016926453;4913.107823164235;5764.48103520823;5806.107296137525;5886.462699101062;5948.434397368639;6002.757885113534;6182.044958561656;6102.129012136603;6279.368759028171;6284.664282580515;6300.436923671714;6466.106283721405;6473.397914645647;6429.622251499625;6524.427544724275;6405.407711724013;6305.10241497613;6322.107149913068;5952.736677870895;6309.01857090932;6438.255858093767;6404.227086115227;6422.448935635187;6288.816326837005;6208.384557293792;6249.39554304419;5955.253273214947;5926.093705787157;6106.624422337201;5872.475603773212;4963.324373718179;5719.373159173926;5536.873141302783;5338.909154875339;5212.435613727056;5129.232501405351;5032.958961191882;4847.01349321069;4773.582941475075;4649.23767455589;4430.854432904768;4426.27132822283;4247.688745000957;4045.0679572656845;3956.1804511012924;4122.0452234731365;3906.318719454631;2928.230044465971;3409.5770590584602;3334.2298157159616;3055.0769466996207;2876.5061053531917;2795.206423442387;2778.0694972474607;2664.485754920571;2214.3378729256947;2237.508173508485;2019.2746113642718;1959.617622167217;1759.6915871272024;1735.1899044074294;1606.00268160811;1589.1681046322037;1601.5475676346841;1555.650597058328;1554.40958948761;1541.0879779309914;1531.6916663325553;1532.889970806463;1523.9181290977858;1502.509950317443;1503.4058678039748;1488.3795429808847;1486.2474791920113;1490.7618211549473;1490.1011050980208;1483.7390303926843;1485.7636991214608;1485.968923555515;1489.6824045434669;1481.8053895476805;1481.8670522237917;1484.0360427853684;1491.5330575166167;1503.0725544835884;1493.5267675401878;1502.7026986606766;1498.3908593621163;1497.1586888215038;1515.267681805785;1506.7195107217678;1509.730196836742;1511.4528324337339;1556.2280635614975;1586.928118546202;1713.381366400352;1687.8865708976239;1874.5802906719584;1739.6925340072196;1943.4291230554827;2124.1649704139472;1991.8473265511093;1965.749923376513;2368.3904950629953;2244.0563689316086;2542.5242208329205;2481.112830292189;2732.1282425983954;2574.7908111690463;2259.8963392044866;2689.6547413668263;2622.3618913190962;2798.9611685007144;2716.570020790595;2430.764575051487;2542.5675566443847;2935.5632845290993;2981.108176645637;3049.165532590813;3013.76308948398;2780.1956645336923;2848.451978760039;2737.192127747891;2492.611139665586;2387.994062613127;2267.8674663267193;2733.1592309765992;2617.212910335491;2631.4304475244116;2458.8426524745064;2290.102797657335;2416.7056386597756;2264.152759778483;2244.553300188725;1747.1738270799235;2084.783337446524;2076.676502995074;1871.1054178557251;1868.514513663835;1833.6026288299986;1745.5272239742603;1633.1267263195389;1367.0121397670741;1358.50342300764;1307.7351818726313;1333.7523713153525
3913.551237533284;4366.765674062057;4425.140075033087;4422.084925619355;4540.706322053524;4644.79618330827;4364.075943035142;4762.059071032004;4572.685365422803;4994.412143133843;5093.591968361533;5135.416434018821;5366.405609742442;5472.804933263069;4758.86890640932;5556.935311689786;5557.687329182485;5757.535956912885;5815.642069087494;5865.156868116494;5989.199980386609;5990.821493626002;6074.588752376287;6129.180762311333;6175.3802100766825;6388.078738255369;6375.7640829160255;6467.782849119657;6533.370660478584;6538.823236080481;6478.259644120619;6430.447167626124;6251.157043550258;6403.205938239413;6119.52903625575;6387.678983630459;6487.2747685104105;6441.295205375956;6351.128395400476;6330.585623989465;6096.860611944216;6132.4293503392255;6225.607665397343;6115.48822583598;5155.967365886191;5829.54126879107;5787.165936530327;5594.632568303294;5431.950746449129;5384.9802722989425;5314.257998564152;5073.442960828226;5011.382449524609;4847.078713366417;4660.968797736681;4659.937287079656;4523.3254224193015;4283.690973172623;4224.786422804238;4413.638657646003;4091.306146486546;3097.399693627854;3867.345983604404;3625.1706304829477;3369.319303240499;3141.124867798609;3063.0765989335828;3048.7305666189372;2876.8531962918773;2382.185234646838;2509.6021473090145;2350.4303588188973;2175.898269995909;2004.042957965083;1930.091473516403;1842.1954344123235;1726.4521084287173;1676.3558839469076;1589.8468133125848;1556.9776008757842;1549.8281796149856;1547.228889720234;1525.4930778583755;1523.5925007697383;1520.1336967625293;1500.9807585226345;1496.2242316863208;1487.0825260058393;1483.95957705467;1483.2321535105073;1489.4136156126444;1480.733951807912;1493.1608196244358;1481.2682759066854;1481.6961610424717;1480.2724894279297;1479.8550294315746;1485.0199503994322;1487.231193107751;1485.3305474958513;1495.920618282635;1497.5577003220847;1498.3183364572312;1493.4325612583411;1506.729703147023;1503.2373908106022;1513.5674797316249;1510.734423018871;1509.7683413225561;1576.834553103754;1550.6853003108256;1729.97322664502;1664.4373721977358;1786.0207499657997;1982.3005161036067;1781.8917948587948;1852.608979881501;2219.473649161811;2097.5254166431614;2377.6041048797524;2402.0727302434707;2626.269005402137;2525.5483261046356;2183.1686658155563;2631.6726559874082;2710.5182822422817;2774.8953763395184;2860.103420890543;2884.6082935820905;2813.518657923426;2812.4901630809663;2911.827767267606;2963.407741726302;2978.0860108352417;2812.7977759312025;2681.372227016577;2914.8351555394047;2906.427127588067;2824.24616610432;2771.817155936794;2691.4102467567727;2260.156616175932;2719.9545967680183;2567.8377598934526;2566.604615893211;2491.4945868470586;2053.288439012485;2335.493006227856;2259.9855520796305;2137.8972492989024;1647.8128352421306;1970.2345173217875;1841.4634224994668;1709.9720089387854;1686.4702393093248;1705.918831716665;1549.288614323068;1546.8307149104364;1301.8651707292313;1233.0505689560007;1188.5489590647962
4193.077347340945;4157.376743089089;4245.126871149379;4370.283066108862;4534.275107747356;4215.408204485139;4509.457247784915;4378.21454998344;4945.599286782767;4901.705436612641;4876.137003703304;5227.266410663293;5090.873301679469;4590.234066850039;5348.889823868066;5501.910581336412;5555.278771360498;5673.290483027647;5686.551315733193;5789.54225949944;5853.520090558501;5913.363580192886;6014.887882352688;6027.554661580288;6191.487332904809;6253.176158668295;6295.181281508448;6332.734833216072;6481.9470622055815;6528.2518711912435;6523.446754027539;6485.099478778753;6473.481766243207;6462.6060399132075;6307.821003327721;6453.0215188375105;6518.808416754859;6422.573861591232;6352.882825787994;6237.570262289663;6265.272069348369;6361.184300515391;6267.322358297739;5339.173900642707;6044.954761074069;5941.88367424391;5784.865581150455;5668.9359715719565;5645.701723536837;5545.483041818443;5304.554756092588;5261.870581680431;5097.387371266594;4922.311715899806;4872.536884529061;4775.445314563413;4523.021821157235;4498.774186676672;4707.707140584073;4314.1740876398735;3302.12919715433;4091.402064501536;3751.308705955253;3629.297062056408;3385.2411654970933;3348.882031601498;3274.933817535249;3144.6685398928225;2588.4048030743006;2811.9618882399695;2603.099845658098;2434.5069622184587;2292.03883918001;2127.9612428223336;2105.9532116918413;2004.2442808952708;1818.1986478689912;1711.4550234784401;1557.1446638144305;1563.64009460155;1548.3541644866211;1546.9965049159048;1517.3320860350264;1524.061041052548;1502.3965669819052;1499.6882722687087;1494.2808901444569;1488.8811441787839;1485.7486538239243;1482.295547419886;1484.3054421376269;1486.7475719091751;1479.3262174955387;1477.6450213133005;1470.027445296214;1478.6784355128866;1474.5536450472134;1466.525211974408;1484.7393097721256;1488.2395076580426;1497.8597742938312;1492.7050526104483;1490.7363450910304;1493.14768716944;1492.8232831333107;1495.7793926754587;1503.4953869173487;1504.4662903131448;1507.8338300037406;1516.4468094024019;1569.9865793085273;1598.808597007562;1684.8510224129784;1855.247995026172;1755.0942641369409;2033.814322384863;2092.6532395088907;2034.9184653314915;2309.5807341781574;2346.33917651368;2499.7525649419267;2427.2841187436734;2104.335560548112;2535.1329963039843;2515.1494937067832;2712.8525957262996;2703.779175969146;2850.823571987735;2824.456880907047;2874.8790137443534;2916.099797494737;2951.3984378351865;2969.4258327809607;2774.9272696770313;2628.482845472381;2919.1253338213833;2935.514617727416;2976.824673869794;2943.8825395476156;2858.498996706992;2853.126831756986;2698.293261660844;2164.662701056476;2570.188120002733;2567.8279272770997;2389.3383888136523;2404.5957664544208;1899.9494710545368;2196.171347334281;2127.4492287052026;2000.153198058063;1564.8592762844755;1762.6902790613242;1881.2208051859056;1493.8499542225404;1575.1323684275792;1444.402298072328;1422.843494622871;1324.1514530154948;1225.7440906623244;1186.868579514884
3877.789197063399;4019.2723816345824;4201.585123480763;4349.974562433357;4033.227272162956;4330.777730671481;4152.643623360613;4671.1453659577855;4712.187930387747;4688.846111049821;5079.776983589603;4989.568312145257;4382.634645254871;5118.806359847836;5418.488676216172;5379.727962701547;5508.981389848007;5511.10356528967;5643.281921246094;5741.0108927515685;5797.843743790658;5889.51717514873;5891.094530249184;6124.124416110491;6106.976701326063;6217.635635282887;6189.118106422315;6388.208543140549;6430.26723506374;6520.2743704333425;6565.162052199249;6580.344558826882;6568.526079951509;6446.280136733194;6450.92505487921;6490.5189006507235;6526.665240326112;6482.70635050053;6392.863061210368;6347.255262011124;6438.224185662464;6337.429472980764;5514.063012840834;6072.080434450146;6084.673545841274;5967.071599455692;5843.200955761617;5827.133579051063;5700.169531877524;5467.297519972144;5470.66258995464;5315.26972415346;5110.05678009834;5080.2276562271;5023.077263710682;4763.629976991533;4744.050149256214;4947.430958673132;4492.587254382324;3509.4357530124357;4235.37942551556;4010.7541471152967;3894.332894557222;3662.6540635206243;3599.764160785622;3541.626207071485;3482.209990384547;2774.1496280632637;2951.0494992733697;2861.482475566407;2690.4135178538527;2640.3478982124993;2341.876400143382;2381.695295432629;2241.4959920411134;1953.186329661158;1949.9727620243648;1765.4490188536008;1619.904307261982;1549.6655786635577;1530.1112703409337;1533.4578625090098;1514.011307061875;1507.2989603859562;1496.7478046916108;1491.8806656398035;1494.9869502674367;1477.577664271251;1478.324296599202;1475.9905516660394;1477.0340998385498;1475.5878797989924;1471.4127998697818;1469.249288552579;1465.2415673184037;1463.9778799704904;1465.1100589769874;1469.3556076092104;1480.1666883688672;1480.736298886401;1478.2493093395317;1487.7329425062837;1490.5383561824958;1504.0674391615114;1492.905659368727;1500.160096051868;1497.4661294341724;1498.5497409128575;1511.1355357907487;1506.4462986204396;1532.0152736196865;1572.7224526811751;1735.4053471319282;1692.9109940441672;1882.436330277016;1958.1010415819248;1908.1713378624124;2152.0228476518496;2174.220922197778;2399.658811968338;2267.6157560623283;2019.4103705190687;2537.739711187173;2502.7609530130662;2473.0544869107225;2544.4033902436818;2688.301513083963;2657.802849138732;2724.9605329560854;2854.5469281813703;2879.1793331105573;2972.7476292149686;2957.9380529566433;2567.4349524559934;2869.3689118165566;2773.7876816556745;2891.9949661490546;2975.9392660853573;2764.7181177493653;2843.986179069779;2818.257774320915;2773.8223784758243;2753.309374992428;2076.743548605464;2647.519067290276;2503.8825093123846;2147.964429259493;2441.14983501008;1758.5370550358707;2039.837227100601;2119.255122661338;2027.6752708402632;1471.8952215896152;1804.9786822352225;1399.4067477990125;1706.8115700031258;1334.6188928813788;1305.6789574706204;1279.2021589766562;1235.5764595523408;1224.727976608905
3757.7457874134534;4011.7139171305084;4035.64022231246;3835.53030249153;4146.314176581856;3976.5047058319255;4398.79837277237;4459.435538723084;4498.182815038268;4891.31986154976;4828.224688141157;4222.763869937488;5021.3207217341305;5082.582727762231;5178.104712640284;5324.0537363310605;5293.823886307627;5493.400449244358;5594.280230288191;5647.934689884663;5681.406333225586;5764.845451610642;6063.284770168648;5867.73853188277;6077.02855218261;6089.841525136687;6248.856468544012;6310.799631453514;6384.69666046131;6475.558081873751;6538.089192825257;6604.262352910546;6401.544730073163;6345.431441584514;6552.022588773494;6580.904948978337;6573.098163950475;6492.449411929166;6472.1113073499155;6514.854629996434;6384.040304864653;5668.702069582371;6291.307863741791;6221.41150281995;6121.146351421886;6011.8020474048335;5997.027348057034;5871.636545679903;5678.139662839983;5655.595063993547;5519.78148472899;5358.711472764578;5310.915822855408;5254.297984871011;4964.7940946294275;4963.647613145952;5153.890525440514;4941.356045685104;3693.479965869357;4539.080534085829;4407.1207712299565;4194.503085619253;3920.1491195496133;3855.35359557358;3765.2527376925145;3551.918196663105;2971.475426094164;3201.2848353877675;3103.4260029609422;2933.5917380134765;2939.7730993976147;2540.52125969632;2756.3198559209923;2427.4746735256517;2082.690071154866;2174.1660361240974;1945.5296713741623;1856.877882794651;1767.4911439927903;1665.956918402746;1553.3275128104515;1527.9633153841523;1505.8267173858987;1507.3957331645915;1516.0952598176705;1489.1665666874908;1494.212689191395;1492.1017902417886;1491.1702081645924;1486.37600118266;1476.7144256592635;1475.6158478838224;1472.2317068734567;1478.1232954722725;1463.1997540968428;1460.4152438758856;1464.3420287198762;1459.8603267915994;1475.53075962795;1475.2865436804702;1476.2616691976855;1478.380047104861;1484.3551514795674;1492.7821990381894;1492.2576237890307;1507.839533030566;1493.888520642065;1495.7030738567128;1509.8673282738873;1510.3390341511458;1501.657072580568;1613.4247115621627;1628.9823413438667;1800.0333591996625;1827.529112148012;1781.2797908114726;1971.2846254115113;1984.856313075274;2167.083019518686;2385.9620299704925;1941.9954939522459;2267.7741810444436;2389.5126691756273;2314.3932369403406;2351.46567666892;2482.8265809978707;2438.4411924479978;2570.522326790499;2730.822090565977;2801.2218743752146;2860.273123292307;2947.0120160017914;2810.099351184271;2502.2766918889997;2607.328778158242;2863.9233091394813;2875.727401388125;2850.541770754169;2588.2257358857305;2796.6924319199575;2564.9525849566576;2364.4289179157386;2049.0111567667655;2021.978929597635;1960.89373208183;1901.4063394941245;1837.329398145385;1772.2641455664977;1712.0627651966995;1647.3535428563193;1581.2367714909365;1514.201339884709;1442.8813916802917;1364.1248136191568;1701.0885889568385;1721.4998244905116;1294.102096760258;1245.2644434370902;1361.3906465532411;1253.0193456146244;1224.6263046578365
3816.18588439879;3890.4485990944104;3631.6908373922815;3914.3793841034576;3796.555945943229;4227.262684359777;4352.520777845911;4299.572526575623;4702.537503205015;4575.411760735511;4051.515317235159;4811.228798988628;4940.73742466117;4892.535763799758;5126.018805279624;5153.035549045531;5299.196761368286;5423.205906670122;5456.029490453279;5547.544376981855;5620.904554140114;5823.140990806043;5658.19211279568;5934.7907144549035;5945.201836988678;6162.264483753391;6186.240653009127;6283.436438452316;6346.531219142846;6428.007894269606;6549.9492902342745;6459.315614608078;6195.1223036463625;6458.927374567667;6499.315723382708;6627.7822336588615;6591.371108272293;6584.73701473831;6593.6741772335345;6454.524700897698;5833.51537710826;6360.29492621676;6265.514330560182;6317.889645982664;6167.407738956079;6229.460614000947;6041.709661107924;5879.951760693163;5855.602091447849;5734.627809529692;5549.435146517054;5567.899539593267;5495.389562404269;5181.912694749808;5195.271179228223;5351.887613899633;5074.236691224538;3909.9811466461965;4800.226044258517;4556.464547136522;4486.721692179036;4136.544140965396;4074.968211344693;4023.9798984624913;3767.331731728307;3176.784736199933;3539.6576874522034;3343.6303733106893;3175.9045122759567;3126.3715033742187;2781.9330574687256;2987.2053934758706;2647.0010676970924;2242.882032962013;2372.038806027403;2214.5628000234396;2104.649078005582;2011.844417545179;1792.7163549881386;1695.742677636276;1540.6128345485013;1507.42422424315;1517.7830315220067;1500.4245429764503;1511.9518880653877;1483.47706890713;1491.862041732053;1492.1598735136542;1476.6120044310653;1473.6820556110792;1469.535229229725;1470.9211774447735;1470.4093000746627;1461.3964247648196;1483.733475730897;1457.3168805511937;1463.1048588387603;1469.4223314232283;1464.2225141093625;1468.5744615900228;1473.227763735955;1476.2726568074163;1480.1199894776053;1492.1307312520685;1491.076660719778;1496.300039762468;1503.1471554653049;1497.442707666619;1499.7790212784128;1501.0493377025718;1535.83869843655;1551.9344286728603;1702.4031891119396;1725.315309217213;1702.298910134409;1659.2255067774315;1832.694639955147;2097.5749409574746;2282.734315395691;2143.594333512005;1918.7764340033457;1976.6964223176549;2035.6617849463726;2094.9491031181133;2158.342642285978;2184.9174026329642;2371.5040171032;2510.401338382667;2640.377184524383;2708.1265638034442;2910.9597403416474;2922.6936317449527;2629.447462165587;2433.781122451801;2781.674071310012;2836.127057703069;2948.079077210171;2855.502989801362;2800.6645213585734;2379.4999358330406;2562.238242260295;2120.9579223281517;2564.530020587163;2463.705571839231;2319.7023702793413;2224.943943041292;1902.7894949212102;2270.688821277469;1961.8390734409775;1818.8796344284692;1658.6502743006192;1922.472549042865;1502.264394329957;1719.024431258307;1325.7907390211747;1570.6900114440543;1246.7097263157782;1446.7548652827118;1245.5024977993546;1240.724797533064;1235.9784020382194
3666.918789805198;3438.8867425724065;3739.4399612084676;3591.7169454850937;4077.5029470701825;4065.8135780079983;4063.770489211798;4484.890258181362;4340.502913244909;3854.0630107721486;4649.515350567026;4812.541878954671;4734.497065230325;5006.122207866776;4940.064595592092;5072.95953527227;5237.834343311523;5283.590070147462;5336.302810223041;5436.802537588335;5686.193749061721;5313.737878287012;5576.906514075946;5754.62519323643;5983.573795076621;6025.773473752312;6141.627162657109;6208.729384822193;6251.631635977497;6441.6143054700915;6393.418231991453;6121.065786435626;6518.945239107572;6423.596213883051;6581.92994668535;6663.470733233398;6661.237093212788;6552.188607645174;6201.054594196822;5964.6587349636775;6448.999677242177;6406.108307027263;6469.235663221002;6302.696093849432;6356.1830402139085;6262.496442727477;6039.126815388346;6072.63272868599;5912.594897507362;5728.651973507288;5719.104158379148;5713.503452981738;5404.844673441692;5382.816877477697;5557.266154022712;5162.441200838365;4088.8519557565355;5033.5724783259475;4889.280573049509;4702.831508350567;4364.725707548815;4307.802118728958;4280.351283291344;4122.710293064041;3393.300704074422;3715.1606094200038;3562.4184130142266;3458.96983295813;3396.2343286096366;2992.981656112003;3236.499343449507;2938.018935634079;2398.860552969098;2673.8248935123916;2454.3215117755;2296.869510527137;2147.477428878088;1948.0040632429561;1856.741764654838;1704.62661892346;1669.7536091856507;1539.9829551086782;1513.0793343741695;1503.805828814518;1506.9305502765562;1479.2005792525724;1491.0087735473587;1493.6912727693118;1491.5269688220385;1487.4857405362977;1479.7281590774883;1486.6708130200423;1469.0278828742114;1461.7917370346854;1456.7567187347304;1472.0391733318918;1469.3952578458698;1461.382264903959;1458.301591188524;1461.864462778121;1467.1362838472253;1472.5987438335349;1475.9135666224058;1489.5361856998281;1489.3698494222904;1515.3592770114487;1495.0855410812733;1494.9187605826796;1509.10731305234;1513.8491023352476;1535.3565263995984;1554.8713649357232;1617.4574640162975;1594.916918218256;1595.4273248544112;1943.988610919485;1940.1648761493057;2180.11719714191;2112.119900513685;1896.8246993454293;2269.986078969403;2182.4828737585035;2329.507043905206;2149.9016543365537;2483.4800828358525;2575.7540640014818;2241.756472713934;2538.69141891303;2450.4934864306306;2551.6319566874895;2873.1656356768253;2551.269084906652;2412.641564174134;2804.244605075169;2625.702595215417;2782.431978885523;2913.3947424984262;2823.9459887423686;2798.5959584560633;2554.5689630681018;2164.032204927342;2640.197103468484;2612.2060133034247;2501.5802762205503;2458.2564172021375;2041.333046991209;2355.9775750077147;2275.747649671391;2093.508968404367;1946.2803387377196;2090.8448184583476;1672.8925909324787;1959.8133714809562;1524.9902272768559;1349.3769190853561;1245.1491413049437;1470.7312225734413;1463.3131620608865;1292.3959607316158;1283.3908558990045;1214.0809035199247
3249.533041191834;3540.635830474215;3422.1606833467913;3914.020270399222;3873.5265104381306;3818.5175329103067;4258.83683127306;4234.9155167100025;3681.583850845571;4421.434093930853;4555.655368756881;4540.873794079475;4745.353610768649;4676.345084867203;4907.71224816694;5043.891074389244;5083.968387490858;5150.783144791682;5259.396310331885;5581.098224748971;5160.879367517205;5685.759170314577;5778.7905490362;5907.832792325423;5914.061982962541;5994.638516417936;6194.41626361335;6069.188786217893;6334.913438060238;6319.962445819961;5974.684930038195;6416.469941771856;6456.667786157578;6565.502847879749;6573.32098570167;6660.302400909337;6614.088782842224;6426.5602564777555;6562.136680112159;6175.2211326735805;6513.498469053471;6595.86932126921;6489.5266644102985;6455.1676311572655;6404.164618260973;6202.292689398364;6235.9016574596335;6138.450511687732;5873.945874855535;5885.931985936351;5884.107340262054;5612.901357813663;5599.8900061482855;5755.342328293614;5431.765422782208;4291.238891225242;5159.862824970795;4908.211806329783;4945.381190970946;4592.136311573978;4501.365594272019;4470.898537826883;4259.211713617671;3612.372324951205;3951.262495625435;3842.7443643272495;3687.1742849598827;3662.20627607691;3293.2790317639297;3501.099169399624;3303.136513609556;2569.199103344463;2860.9821139116452;2705.0695362657098;2660.839458793812;2481.011127797038;2123.9372588974256;2066.4680779717396;1913.3006983522616;1856.1496253784064;1663.2752442350218;1555.9754707927004;1577.0686796672583;1505.6621659649998;1501.5104724845987;1478.9017991920161;1479.1203292231787;1484.1832025681547;1491.5469727266704;1474.166784231549;1462.636908080761;1462.5677882856085;1465.2778010891327;1453.8874693534258;1451.856521548172;1460.6216782724232;1463.7515514156973;1455.813280916864;1455.5505988380712;1456.74069483289;1467.2635314540119;1473.9755361768348;1476.1187145276135;1499.2819305358373;1490.5881497007972;1493.175970786426;1497.9717812905196;1500.6354277205041;1512.0391294472677;1512.4042465816065;1511.4400558695734;1537.440791117512;1528.7693974919555;1547.4121459190285;1726.9311962332558;1752.0009954458994;2079.7007511782003;1991.4387810280887;1834.337723093493;2152.8906080684615;2079.095562977498;2352.068015925513;2419.7985036977752;2432.4380626027937;2441.6528098265744;2605.4668903019156;2597.2640895827426;2268.902529932481;2288.015959555944;2588.1610066330327;2693.2445588262376;2356.789853876487;2628.913101114405;2730.926108269793;2814.8507954475176;2826.3057940949207;2914.262013289006;2858.532431711381;2599.4022590375766;2225.8574283594107;2638.160287556875;2681.9283889296894;2683.8157658154155;2631.8007836017064;2260.805773801078;2411.430664097485;2299.1322789658707;2306.43812589612;2253.9942299737986;2195.4768419208194;1918.4655705109437;1941.9443353964296;1761.5043275622388;1586.6164694201907;1524.194475592222;1475.843964953341;1361.055884634316;1542.0754195318061;1443.7373004335107;1174.2877779189007;1184.8749818069514
3260.6615435100894;3229.2844986386003;3571.3154440749886;3691.224797730697;3635.8790699781257;4000.3533503513454;3983.4061686141404;3506.357895376883;4170.261091649267;4443.192561925089;4335.077582698017;4495.8185819418595;4418.390764615007;4676.646716287259;4841.81754774114;4893.149764643247;4940.853965697599;5071.874051862874;5355.031888313225;4988.788897866573;5581.817255317441;5575.1888404746305;5756.251834044917;5730.916820837175;5903.98143561919;5804.50878535505;5936.116764233434;6184.197955556012;6191.739390935948;5823.638228793915;6422.096873460835;6465.08889840642;6571.258431378313;6643.333702927478;6684.465066847751;6668.639212765967;6711.292249674216;6662.668822428233;6472.766204650089;6341.927793486747;6497.94132756104;6618.869816992714;6618.944243412662;6542.161518993846;6365.110653288921;6375.544526547816;6308.1088778059275;6033.734968142031;6052.126386182744;6045.2375806096825;5801.208600796438;5789.086503093782;5917.947353762859;5690.866300759829;4502.324635836061;5308.830049811835;5324.396740443485;5140.272881536215;4821.975595178;4703.844401893203;4709.919920572522;4602.785165324403;3846.175970295658;4261.004314056828;4074.475323160325;3901.4459116298985;3806.126013974653;3504.9153115168456;3710.647034173934;3433.154886291496;2734.9217717792835;3176.935693617332;2925.514125553471;2899.1521283269276;2617.756219497889;2296.3091555108263;2267.6153108272824;2142.5129057597183;2085.7795965204696;1829.0106369347056;1729.5090730862098;1664.3108730718561;1590.9324218532545;1503.5494926054364;1473.3411072242989;1476.9249470936704;1482.905716953756;1468.6744495499747;1474.576685253923;1468.7261423382004;1464.5597054497614;1460.95503079186;1458.343608341574;1452.3376824220168;1454.3800027504951;1451.7273714648095;1456.583806683884;1459.5716642530076;1452.1115762928391;1459.0602042601404;1460.1246864957197;1452.482123620902;1476.7010750682282;1488.9855521157224;1484.4262325139805;1495.2854949453588;1498.5670501323696;1502.9043075176785;1501.2745404456323;1504.067060052264;1521.5552849780802;1523.252619124958;1525.9263004039053;1628.4571617753033;1726.4942234579114;1943.1694276337375;1946.106155448657;1767.974502202962;2084.407648560017;1941.8097211028007;2180.611217407986;2305.660985662557;2511.9557109669836;2601.5617867106685;2590.42621069749;2602.1301219074544;2493.571003510446;2622.982096507575;2626.8791168825264;2292.9404280082376;2312.4853833612933;2508.7315767545606;2599.1057101895162;2853.24564483698;2872.9536504688444;2913.1870942137193;2895.583980818342;2612.260977421753;2284.398938290223;2562.90252614033;2646.3266558389405;2800.8291053072376;2718.0563803858745;2438.7092964275867;2585.5539645899403;2511.528035299149;2435.5165750853366;2397.6629653966143;2372.146405098021;2104.5294565632266;2181.0670563186454;2006.2307334087575;1869.4248584613536;1863.9682445138328;1691.5544327495672;1646.960000834628;1657.1749567456277;1445.4411281735327;1176.2799976843046;1172.5164939913473;1159.3927721802195
3032.3276800830117;3418.733495153515;3496.932003815481;3417.8985641866952;3808.530674280883;3786.8249122232437;3330.7238091593895;4012.1131308957297;4128.740291168146;4121.627944679287;4250.346580474067;4225.51474783047;4644.606464888455;4642.563715453473;4701.803887308;4702.274854870186;4840.1793488895255;5284.428317248924;4814.183305580325;5388.394077267334;5383.214717086028;5558.773774665198;5573.120923638723;5691.649930923548;5653.2325897907685;5941.86077717168;6191.807027917663;6149.092619880669;5687.104883418681;6225.452490680912;6394.929223027357;6496.444359403834;6520.0814926801895;6606.704381783397;6658.427043906369;6660.04695389623;6697.404080690254;6661.458803579689;6557.846958888431;6485.329545751022;6563.407168028549;6612.659472034266;6629.215994106906;6504.1840252931015;6609.555630136845;6447.643853318437;6169.3593882300265;6234.883513556327;6173.452640257327;5971.216831037266;5966.081050281085;6083.910736036951;5746.060650109769;4684.778431129866;5553.886792030175;5359.162111589301;5322.40898555141;5033.546600840058;4906.022724726661;4954.1688286729;4626.00432575886;4083.4146847740885;4412.272706669061;4334.717966642098;4121.787216964338;4097.446455079016;3751.357377933167;3911.4554542098017;3606.217130939388;2888.145116319119;3372.7801636397894;3218.52072341763;3170.4184564296816;2938.5702506136595;2465.011184539319;2478.094173765984;2344.7784973466855;2269.0650787961927;2016.1287444623438;1909.415502593876;1798.394628113328;1755.3373816129454;1621.6094808300234;1528.9449435437657;1473.3530628091341;1473.6364988050718;1478.7732067626694;1462.501971940517;1470.9506535624703;1461.613618564805;1465.8941777734062;1447.0757864239242;1446.086737294463;1454.8325844016215;1448.3716802247982;1449.5920623055374;1446.0916061589307;1452.9360280683725;1449.6289895676284;1453.4418994890152;1465.9200818965965;1463.6109643937125;1469.1115609868652;1480.1178978782325;1488.1111616790058;1497.0271069253085;1497.6421129192001;1507.683734716963;1521.3647262853758;1515.8949590358536;1528.897097127412;1530.4738962575445;1529.0982108623468;1629.8273319530826;1824.1295763777907;1710.856113722435;1702.3741762937307;1880.516336316879;2032.6858918417527;2230.171005959117;2307.1282662038575;2379.9138953044708;2442.092851158308;2545.0164708119537;2589.5150318761107;2659.11997851801;2668.687479895236;2730.0835609781752;2375.458461533155;2584.331985734723;2521.2570321714643;2660.5029810611995;2695.3654811268084;2834.1434897161303;2909.390178682561;2900.7397162809666;2566.0515521536904;2343.4642885975404;2551.635809393143;2698.415982595809;2752.233969301627;2761.4886971347782;2558.4912595633255;2642.370177779954;2649.4253142485813;2524.101841486786;2510.98922153416;2476.6652044949005;2267.647946221155;2331.9243881315083;2194.729980323006;2042.329307118473;2096.093775748187;1911.669255951985;1774.1669622233894;1395.3057347346487;1276.3390912561347;1189.9853759558125;1337.6390576804154;1252.2113863487405;1184.3147413197378
3106.818774358534;3207.4004359695223;3190.5403986919123;3566.9777334536725;3598.1824312665317;3150.798612116334;3748.257422045144;3938.2966725284787;3898.091034390831;4048.1815621505934;4028.6340408086294;4404.068516795516;4415.608937736041;4486.608565851785;4520.26505572627;4637.147300361787;4968.543694289475;4641.95438271278;5220.3168547276;5102.267715477841;5320.6629879602515;5411.222211681204;5614.021601949219;5485.234219929565;5841.213868936992;6026.081343397311;6012.637451340833;5520.662514488735;6086.850353539204;6296.486704028103;6256.358564472351;6401.58190491401;6492.020243281881;6572.664171248307;6623.9607725484175;6526.5057041427235;6692.908690736487;6692.998675413711;6676.104286709397;6603.313312944039;6581.136509416617;6663.764956240715;6589.4186913307885;6678.804662698779;6533.999078858046;6301.573584474909;6357.898157431511;6328.776056209548;6088.887169186374;6126.02344590108;6208.8148169409415;5944.107066296344;4884.222911506671;5589.111666008945;5591.014277234723;5520.00717323749;5264.687707196558;5161.3370653438005;5192.8515576507225;4901.009841259998;4274.534786351829;4605.322558954591;4545.623302845346;4328.116564626753;4258.377367384821;3975.555970156286;4088.1503294634404;3921.645541075352;3056.054500492368;3554.615779187746;3367.7739015697;3400.6352774753304;3211.8935890501275;2657.674209461448;2649.2433502992776;2581.0155253608186;2476.6412400747904;2221.673922148062;2164.3325977998957;1954.7534405380447;1971.7095444245062;1787.9392064315803;1671.9194443520673;1600.038114040894;1495.002380955484;1460.9843010406746;1461.403617369451;1476.7095368786133;1444.8538948256544;1449.476409036839;1450.9799252475684;1448.2103295546876;1442.232245691075;1455.1675476268472;1446.2464893977703;1442.3743583331145;1443.0659795414144;1446.7823781133425;1457.0475848763972;1454.1004594335866;1452.5764462221252;1462.9180857258475;1476.6098684060996;1473.2408268129063;1496.5599100898555;1494.8965170928573;1486.1325053597175;1501.7683840533978;1507.4280809934232;1518.7382963338111;1530.707755883144;1547.0960486834256;1547.567029298962;1582.0046974992108;1653.502080514648;1639.2073109432317;1878.692534761964;2004.0080633295745;2076.1274222934335;2181.361906021415;2298.14140749104;2404.994939699097;2449.0257687305875;2496.7228472628603;2250.553951141037;2592.347530219766;2697.292065387504;2679.3095184455847;2596.4370906851323;2650.8226795273195;2713.4615216139678;2743.83954546317;2774.436687788709;2823.439665363698;2903.133133542631;2625.858598538043;2390.5822480721345;2703.8740215174657;2780.67777262496;2750.5063596728046;2804.839887548618;2725.8557197697846;2713.436687494391;2767.992060347683;2642.0972897293245;2665.2833370696326;2529.2630372424783;2423.3347488905997;2454.4512754853677;2399.6949804996066;2244.340458990807;2210.90534560709;2002.4195994108202;1708.7650100673761;1579.9868469022306;1620.954413786551;1455.114424263149;1472.5277916799866;1407.681503159717;1279.6547434200052;1243.4510545299768
3012.1463838062136;2936.400016722846;3319.70517828914;3274.642367445392;2982.996140995366;3632.5173830041704;3559.7807355131567;3672.7447758009844;3865.9788903189306;3802.4888209139567;4181.965586976154;4151.3815434728;4277.358937693992;4329.695770194674;4442.592911598332;4757.989103927331;4463.529013850813;4996.3566786393985;4919.975662646904;5208.117693320347;5204.683150013087;5353.16323264599;5312.293947777415;5624.95455051159;5855.4945323266165;5854.312889366666;5350.256155167664;5990.9788232424;6124.435466863995;6142.290864940225;6335.920884908736;6310.975062316055;6436.153336758539;6472.3665107732;6425.531439478737;6646.882482903187;6619.656287712001;6653.808258822745;6686.928848070835;6699.310810207384;6695.50160942835;6584.230756703805;6624.8905610711645;6571.0245529443;6406.739525941422;6495.616217431256;6504.308165981699;6226.886398221606;6229.596255184443;6308.352098580826;5926.071521017967;5060.252555563989;5738.232513432118;5778.3446990208395;5686.511097539904;5478.147735091956;5367.4253753684725;5382.565361023517;5220.018603544341;4490.5013511895595;4851.004395343846;4869.077270983739;4532.9947184259145;4523.805355020182;4184.9378209289625;4300.350811496758;3958.166583626038;3229.9334058979252;3775.4602430903133;3654.3023941088986;3607.870800929063;3359.81852869319;2861.2513025833136;2929.5689761641734;2840.586387429925;2649.2113222192465;2415.423285585825;2386.963424133795;2108.833989727237;2109.5050604685966;1922.2302741045407;1844.0713574766235;1849.9738465866833;1613.163357019197;1506.2810802473955;1477.4327029790052;1462.5064241796397;1443.0281128345064;1451.8890527638364;1450.2976808540936;1446.9081140630444;1439.2764641790084;1452.3934723311877;1440.233477487372;1435.8212659152493;1438.6351892674766;1452.9646615649847;1448.442398939345;1445.4395109127652;1445.587481974488;1464.5613878627241;1456.9672938025853;1474.0425184615617;1493.9616899235305;1491.1246447608082;1487.7485448928787;1497.105403280511;1494.8827534336028;1513.8740528796932;1519.7306541917656;1534.4463610233743;1547.8471672192995;1548.5988681784822;1554.483283187437;1575.0029640467158;1758.4331493654192;1839.4344933805148;2017.7313370636164;2191.864187867806;2159.855153223061;2314.7923019316804;2380.663020340254;2332.6107023820728;1991.0764998900358;2496.4550254606743;2511.0510060713723;2662.0610349428857;2768.7631773706617;2750.5188454940917;2787.936009527162;2778.8583368904033;2838.8536213515213;2863.4993705563525;2907.1359000856264;2755.0327705185514;2452.447670489715;2781.886004076998;2643.2926695719134;2803.3787375404904;2889.237856752762;2764.930058014924;2836.738463792429;2676.6680163017736;2737.1586636606517;2438.7235940439173;2616.1355239529694;2243.1537927997433;2364.0840495900216;2456.264555814292;2322.165796532598;2044.8993555044628;1990.5588365645262;1694.9649627826298;1875.2859727093098;1880.1156360005502;1632.5497116751985;1666.355913336768;1462.6661162015243;1332.5107967659333;1271.1121260671819;1222.9294451754433
2716.838056746802;3090.9763140886585;3180.9346979112015;2786.0692152358906;3251.316021601393;3448.195689846048;3442.5905568156727;3648.887796004246;3612.9970979026916;3977.847724365619;3928.140071763524;4094.4094767048073;4106.603248302981;4248.898618566363;4598.034685513562;4284.106215874233;4786.34731145736;4723.807482313373;5051.554196248882;5043.39939702044;5125.536058611451;5125.6573625111505;5501.265757392247;5703.431739972904;5673.73771781675;5181.420673799638;5901.86976463245;6070.429980091511;6031.406772484435;6222.443132614512;6144.968329097189;6284.881090528191;6382.841011296172;6286.570614231993;6506.091277118451;6547.761646735067;6574.041641961622;6643.84811789973;6674.457619695801;6704.499518461997;6476.439506422027;6363.7359887540015;6527.883301186815;6554.013045989273;6610.448355726062;6486.576326682761;6345.202345364658;6347.780613779336;6393.245719046156;5979.0004238599695;5240.694690454006;5922.686678653824;5989.381420891505;5853.8017528239525;5622.293139638652;5588.799686203337;5591.645005727001;5354.522324248303;4707.859219315052;5115.55949702909;5057.558178733644;4741.010976428755;4789.337681407581;4411.159988636678;4525.59039850824;4019.7805697858366;3415.791395217234;4006.7398511480565;3834.62139702906;3814.405441635511;3607.030763214637;3069.4485166370982;3109.70377600367;2999.736200767693;2806.4857776097556;2641.0218177283446;2598.0648389374664;2257.879310248794;2329.6203356884052;2089.0065421623835;2043.8544311067656;1994.6025092353113;1741.5628763976547;1682.2260661159705;1660.569881515119;1455.0597766156268;1447.514835474994;1438.236617022001;1446.7899252627933;1436.0566096999896;1439.4263137321739;1438.3450923545865;1443.9794103970191;1443.0496341650737;1447.4197939825765;1432.643443737635;1436.7042626803704;1445.1667547301165;1442.0706292328573;1440.9463464403182;1452.0362363201368;1448.8954430765257;1452.7275024366597;1471.3108589639264;1485.2088483876453;1483.713183785774;1504.1072672572573;1517.061698197544;1505.4816531581425;1518.3571800061566;1549.4114715371634;1536.4044456779657;1540.0426517930157;1560.17809808424;1650.5800625921036;1580.6191908316061;1752.906550731482;2007.5644893723356;2011.5141577729971;2156.5144504994155;2243.8869240553886;2222.845687981568;1783.1393518677423;2458.6735542828337;2411.0166730612227;2551.9739190023224;2630.4275265327105;2675.073864989571;2776.3117122664407;2812.12673866934;2876.0358846115582;2849.7240440348023;2908.4202039985826;2760.721251296539;2509.6507425414975;2798.315603928395;2697.002896759516;2886.767073268049;2848.558026135269;2786.535869076128;2525.1545452422683;2771.6772788503617;2234.854416438953;2570.7725154825184;2131.7827708722243;2577.685329739289;1910.5787900360103;2521.201787276789;2361.116841150799;2136.2871679249247;1736.9593643259452;1427.571554737747;1898.7067061807415;1792.838991006918;1707.383274204343;1462.6231732284027;1642.4637175363289;1331.3427593539443;1359.5990575864835;1288.3403897731569;1227.9496597379894
2799.993658306394;2962.9087118807397;2640.3420461283426;3042.9541680669818;3159.081177695351;3187.579630660272;3371.037620488877;3411.77694045201;3727.2799543998713;3707.4984628812517;3870.6838779492327;3882.8084312050587;4059.371458077728;4386.811345542338;4097.504177593296;4602.920692547895;4550.236619372208;4888.249725244444;4854.5631820797935;4944.970073696122;4914.313227490171;5395.205672961465;5519.45183936267;5501.458685077988;5010.343103805836;5815.179006736777;5875.015578632573;5891.679180839728;6038.21050434977;5940.585377599947;6176.117610951798;6297.460552784243;6133.514115891871;6420.797849287471;6422.7657256075945;6490.259615220934;6542.004310626023;6510.403408437877;6640.023600884808;6666.173824702268;6600.365934270547;6551.143743519697;6270.552082800007;6481.095057869447;6510.187017679831;6498.313300431835;6566.16611321426;6496.56513392208;6225.107324396888;5392.051250355627;6165.386538260267;5942.86730852081;5904.481682914998;5757.418362189665;5792.722517178154;5781.457757622312;5487.077745309278;4876.141566406168;5289.379882257102;5132.920899862143;4923.548764298521;4878.322965272304;4601.402135007593;4765.630290633063;4534.318807198423;3590.353304967876;4108.274786491978;3967.7823870774005;3970.3618502375225;3786.976883334023;3268.780087174883;3317.4308201831877;3298.616497073733;3115.3919134301827;2870.0624009509315;2777.8282253296184;2398.4900062053357;2612.6280848386873;2272.055569082987;2265.270613906912;2166.0410263993026;1920.2360142666967;1892.067517824229;1807.5125548657475;1538.0229367638726;1523.773433887553;1473.985168719055;1446.3187538042757;1439.3535335474248;1434.3953560407506;1444.49668464995;1438.4134238676543;1439.0727717514867;1435.354280623941;1425.5918137723293;1435.736856940754;1437.0714120435935;1440.9102163179275;1444.8598402515672;1441.3145054450915;1446.9051460238559;1455.8307343691918;1454.696898238951;1463.8389246600057;1477.0812564635912;1492.4448694265004;1499.8629294022217;1494.3829797365113;1507.245422772757;1518.2096933037656;1534.975351979573;1537.1836539876997;1534.481267987453;1601.0106827166767;1635.8521742550838;1740.1975938276976;1904.522104019936;1829.933980006863;1919.601327971103;1989.081311013124;2144.0989453877028;1691.4649586851478;2289.4744080423216;2156.414671904568;2283.5466802966102;2341.597781361138;2524.04624225128;2707.186845355294;2636.7589741108563;2842.7595677019976;2825.8043651010466;2863.611871369868;2843.8302448255454;2558.8364129471925;2866.2748393859265;2691.8479741522324;2903.752434844839;2824.264149418252;2903.1121387144885;2883.608974779388;2751.511498434624;2043.7703325213042;1877.881795517121;2684.8560561952395;2346.531899013124;1664.0277719805213;1628.2178526163325;2131.636259115493;1577.494686006366;1576.783615199626;1477.9801554545;1909.9814048145054;1427.4903318143142;1925.361778435161;1624.9989878756305;1394.8762725317613;1436.4832973443768;1359.008313265594;1354.4410166638224;1321.9500940477794;1256.4757618783685
2702.3953650018025;2480.8169236786566;2874.284426442814;2954.2485294208564;2923.0246656256204;3161.571790963841;3217.1406738323903;3501.198740828886;3468.8061837573923;3618.219927499044;3671.396169017789;3829.879598010388;4134.856689759285;3880.677770979497;4370.91503412015;4322.208738725595;4683.91444997611;4671.16873578012;4742.540048833117;4715.657910223116;5093.929918700207;5292.757387110436;5248.799792121094;4830.909850398911;5436.5427209984455;5617.478096550599;5715.131517003688;5856.177596950493;5807.777434658452;6011.706074899755;6148.321368682716;5980.464679979304;6344.802351273204;6299.882341899782;6387.562434130049;6451.262733766737;6303.308796036323;6575.7140098191285;6610.016438860485;6648.8080744871695;6666.531366204509;6571.363882519534;6524.049678731137;6136.577318828241;6482.14798823656;6399.562296217095;6538.553285582239;6175.388704646866;5533.862940119366;6060.915869120673;6099.03356276212;6081.386557293527;5969.942081398116;5969.289883265265;5916.601284818254;5739.372642580396;5074.183060343916;5396.833340769296;5386.108160879749;5144.976627625109;5160.892901007514;4840.25737807328;4944.298929395422;4455.243213337965;3765.2925662128255;4365.113776805023;4204.970995114519;4146.5022293079155;3961.4415868575984;3485.736819163933;3587.506602916198;3618.351745488475;3317.1680355565777;2971.900721231752;2999.744317167267;2573.326932057419;2661.5849955131516;2501.1355039949526;2474.3597654612036;2393.1687715017283;2079.1649912863954;2120.6053649184996;1939.669278472797;1641.7805606439647;1641.9535046208102;1700.7804000404278;1575.1622245337096;1433.9882522197624;1434.8621884081012;1429.4144873195814;1439.4613286454353;1438.483846718785;1449.595999784541;1436.0611184889215;1431.2731538837147;1425.2189949721896;1429.2822477515083;1437.139463435215;1448.408704732687;1440.4620101924156;1452.3195958848667;1441.9929118012035;1453.6391124680054;1465.0395746776428;1478.4563472219281;1485.8579772937487;1492.0709688716888;1497.1778814544236;1503.639045848052;1506.203095915269;1515.2134806610345;1531.0994661599655;1568.2260249815895;1601.591559341014;1614.3070156011659;1651.0037301730206;1678.9416736771757;1720.8819785897558;1662.0372790666472;1923.0009166838095;1693.729118137718;2118.2007515575633;1715.4716751830617;1819.3286055881752;1866.5866898522124;2224.6696351539263;2511.677727392955;2413.0672901866687;2600.385508329523;2758.15503258033;2724.369349610262;2883.2520158255793;2763.6458125419354;2603.8929583255926;2834.51982310984;2870.7383813882757;2830.2303597626906;2943.3541107244782;2774.5845891704944;2459.1764695394954;2271.3179342583862;2609.1766677930377;2581.307086130316;1752.3899442958896;1700.3230490498847;2385.289582576984;2345.034457832507;1578.458646467366;2176.2569113226314;1914.1407803080217;1844.5779281660266;1730.8929719728935;1780.4799643374902;1426.6133057292222;1410.2766140963977;1624.6854352866785;1379.9843868054331;1401.4487266969904;1347.1547920991732;1298.1124769769185;1277.5747248273442
2325.500008056231;2680.3669775866406;2770.7973188101037;2723.916534918451;2922.710975368548;3000.7457733939627;3304.889562556012;3282.971356868758;3398.955806704765;3451.2431413785102;3594.980550595431;3841.7534475221837;3674.6148345045763;4066.2523841017633;4086.9662539596866;4413.590778557654;4468.731916859759;4586.777779740966;4507.602271604406;4955.0169255044675;5080.428416840562;5126.639315175684;4620.3877516254;5362.702505765828;5506.251704464361;5501.934095963757;5703.346147286705;5655.079515738517;5971.4944035602;5978.318312084956;5793.125746392419;6149.921373005331;6195.336128915199;6316.745438032542;6427.535660081991;6113.270000778372;6404.558947187822;6500.7165647677175;6541.255476865797;6646.080366925131;6664.9101971792;6628.55937586362;6401.439996795611;6337.732180741078;6004.09326520768;6591.200989649942;6336.643009582235;5668.259318071135;6244.192721649842;6249.6034073170495;6198.859454433108;6145.861756498136;6034.350357666015;5825.817801737983;5503.5477460543025;5242.557505354913;5631.092938287572;5500.211232372553;5323.570873534687;5338.678218972478;5031.469944148194;5102.411537177144;4867.651359204175;3961.3418063331656;4436.819396571789;4212.5321655139605;4313.894688791257;4105.696696038108;3702.386156824363;3775.7758924624636;3635.9651111331837;3347.061911348796;3080.637458383925;3119.5265381602953;2720.4600317954937;2924.463139302504;2717.4596927223024;2681.863586294541;2507.9935920874236;2235.75932813488;2243.1135307738746;2154.9165136822257;1775.7075824579815;1829.2316944958454;1772.7602470704062;1511.398351370986;1469.4856066825232;1442.2598976924123;1423.1138088253606;1433.0675970782042;1433.3594968387652;1435.427956932675;1432.0875667767864;1425.5492003886934;1426.5866060975275;1439.9138296531464;1415.2029425716908;1433.605787465389;1434.6442143174022;1449.1568670823722;1441.4262495310159;1442.0168998947;1450.0358276276434;1450.9401431154713;1467.319168777491;1484.1658038847418;1492.013453042883;1495.9888924387083;1505.9281266911946;1506.036836721833;1524.935792450714;1550.1288736452752;1591.5485213016855;1612.0264801369829;1641.4076956759825;1802.9554578138525;1658.0028138646503;1660.0882794430545;2007.9099792397358;1662.8045617051419;1966.494500904362;2031.8239034932005;2072.542927537156;2331.9441415514193;2319.2724582061546;1955.0454696584693;2576.974025896006;2125.8095073349077;2366.3688930561284;2533.6858683675496;2722.731617532172;2891.297737669719;2643.7448456697116;2836.773485672933;2797.2650862897817;2917.618970665112;2933.9462165280934;2817.1891136578447;2645.3737038950594;2813.232535265423;2763.6544497804643;2641.174550293972;1903.3219046488455;2473.364225571881;2491.52125457416;2053.9871793205116;1780.9705224421907;1704.9518258524365;2258.602847815894;2218.458819044121;2033.8125013784625;1927.6104403413917;1533.0528524242277;1714.545233716809;1465.097326296891;1416.8416955805706;1420.5096741250888;1428.8233895643548;1354.229208934909;1322.1611367913972;1278.2786015460454
2425.2780806229252;2492.9956468165205;2534.003903426784;2715.3768058775045;2771.1617918481475;3054.805195981771;3062.3198051322706;3151.894129987106;3239.1176858520726;3345.5923228348665;3631.1121439061276;3462.043205447395;3900.514983489081;3794.9724120158194;4138.751724961696;4264.410284776789;4404.736802674909;4283.745052935962;4656.0038481937945;4906.727271930469;4956.355169851516;4426.465637748469;5242.241829204146;5330.670690146598;5286.065857268214;5545.142523769973;5502.223038415561;5827.314117996041;5874.93767504024;5595.148041451953;6089.684743898078;6064.820441538824;6199.060740297664;6321.296535452362;6000.200986803413;6369.916394802913;6394.876868178373;6441.781104052345;6519.111723450494;6513.540838815768;6643.1560055846685;6593.046908009819;6554.048691269694;6517.517543476402;6446.623324786578;5868.230716931757;5762.749894995444;6287.86439562785;6261.530510273699;6337.934982821706;6335.4523099093885;6229.209731180698;6138.713685824902;5935.794929210188;5536.364855277513;5616.106677427772;5704.3028359894315;5572.563589062586;5414.188888446559;5241.140737004665;5262.411815787274;4871.622922672766;4151.010579071579;4819.832081967941;4563.16146418016;4547.782391502505;4243.644633988803;3904.49270401908;3977.3766558930797;3878.4347309215905;3671.640410944781;3469.3330121197096;3381.938353336186;2861.42538273884;3080.1197910335372;2895.9656052559512;2867.4635715977756;2866.4970534033396;2541.3260264305372;2431.8555160096307;2339.9419051566138;1913.7760608603423;1984.568503015322;1914.0114159052637;1673.934209731899;1615.8516492515996;1509.0135522301475;1463.3715973574754;1435.520726826717;1416.6779349185545;1433.9042080895483;1425.9017287248287;1416.5685614247118;1424.1207997819238;1426.9027416924346;1414.9533476012643;1427.4690521015903;1430.932180007444;1428.5780751877483;1434.057697882075;1437.9553838173738;1442.6551601055096;1445.599078752874;1447.3695905618713;1468.6189990120358;1481.0194507165722;1484.8321388340678;1500.626644115525;1484.8396274257452;1503.8766749692536;1536.8373105295655;1551.8460196807728;1574.3131572790744;1603.5416945272211;1640.736539807667;1650.59458829676;1683.825551621093;1746.3553459232955;1751.3590309129129;2112.7038994287077;1769.0748929468418;2287.993784195519;2218.6739342989176;2367.5244077422294;2457.0512056296097;2500.647979435117;1974.1335579161457;2189.9473335424404;2749.4104831727614;2587.5006287240594;2752.1903790618394;2839.3584058399097;2700.1483144379135;2861.8838612102613;2940.313631509;2947.2580232610258;2957.942945760137;2899.485636664401;2900.754170168151;2852.1341396934763;2704.0782418336007;2062.1506650207084;2575.092665055025;2561.6406428135338;2355.26831752177;2307.9688140294584;2333.481616595245;1753.7718586348935;2219.353808875809;2218.8444061760456;2061.4512843922353;1647.9962547468256;1975.2905258740518;1800.7648235882154;1551.396732428039;1521.4264919091072;1487.0334902874256;1433.00802726621;1335.4500338265814;1318.297288483489;1289.4790486539914
